# .PCD v0.7 - Point Cloud Data file format
VERSION 0.7
FIELDS x y z
SIZE 4 4 4
TYPE F F F
COUNT 1 1 1
WIDTH 219
HEIGHT 1
VIEWPOINT 0 0 0 1 0 0 0
POINTS 219
DATA ascii
4588.5488 -6553.1265 41.887711
5162.1172 -7372.2676 47.123676
6882.8228 -9829.6895 62.83157
7456.3916 -10648.831 68.067535
12618.509 -18021.098 115.19121
13765.646 -19659.379 125.66314
17207.057 -24574.225 157.07892
18354.195 -26212.506 167.55084
18927.764 -27031.646 172.78682
19501.332 -27850.787 178.02278
20074.9 -28669.928 183.25874
21222.037 -30308.211 193.73067
21795.605 -31127.352 198.96663
22369.174 -31946.492 204.20259
22942.742 -32765.633 209.43857
23516.312 -33584.773 214.67453
25810.586 -36861.336 235.61838
26957.723 -38499.617 246.09032
27531.291 -39318.758 251.32628
28104.859 -40137.898 256.56223
28678.428 -40957.039 261.79819
29251.998 -41776.18 267.03418
29825.566 -42595.324 272.27014
30399.135 -43414.465 277.5061
30972.703 -44233.605 282.74207
31546.271 -45052.746 287.97803
32119.84 -45871.887 293.21399
32693.408 -46691.027 298.44995
33266.977 -47510.168 303.68591
33840.547 -48329.309 308.92188
34414.113 -49148.449 314.15784
34987.684 -49967.59 319.3938
35561.25 -50786.73 324.62976
36134.82 -51605.871 329.86572
36708.391 -52425.012 335.10168
37281.957 -53244.152 340.33768
37855.527 -54063.293 345.57364
38429.094 -54882.434 350.8096
39002.664 -55701.574 356.04556
39576.23 -56520.715 361.28152
40149.801 -57339.855 366.51749
40723.367 -58158.996 371.75345
41296.938 -58978.141 376.98941
41870.508 -59797.281 382.22537
42444.074 -60616.422 387.46133
43017.645 -61435.562 392.6973
43591.211 -62254.703 397.93326
44164.781 -63073.844 403.16922
44738.348 -63892.984 408.40518
45311.918 -64712.125 413.64117
46459.055 -66350.406 424.1131
47032.625 -67169.547 429.34906
47606.191 -67988.688 434.58502
48179.762 -68807.828 439.82098
48753.328 -69626.969 445.05695
49326.898 -70446.109 450.29291
50474.035 -72084.391 460.76483
51047.602 -72903.531 466.00079
91770.969 -131062.53 837.75427
92344.539 -131881.67 842.99023
92918.109 -132700.81 848.2262
93491.68 -133519.95 853.46216
94065.25 -134339.09 858.69812
94638.812 -135158.23 863.93408
95212.383 -135977.38 869.17004
95785.953 -136796.52 874.40601
96359.523 -137615.66 879.64197
96933.086 -138434.8 884.87793
97506.656 -139253.94 890.11389
98080.227 -140073.08 895.34985
98653.797 -140892.22 900.58582
99227.367 -141711.36 905.82178
99800.93 -142530.5 911.05774
100374.5 -143349.64 916.2937
100948.07 -144168.78 921.52966
101521.64 -144987.92 926.76562
102095.2 -145807.06 932.00159
102668.77 -146626.2 937.23755
103242.34 -147445.34 942.47351
103815.91 -148264.48 947.70947
104389.48 -149083.62 952.94543
104963.05 -149902.77 958.1814
105536.62 -150721.91 963.41736
106110.19 -151541.05 968.65332
106683.76 -152360.19 973.88928
107257.32 -153179.33 979.12531
107830.89 -153998.47 984.36127
108404.46 -154817.61 989.59723
108978.03 -155636.75 994.83319
109551.59 -156455.89 1000.0692
110125.16 -157275.03 1005.3051
110698.73 -158094.17 1010.5411
111272.3 -158913.31 1015.777
111845.88 -159732.45 1021.013
112419.44 -160551.59 1026.2489
112993.01 -161370.73 1031.4849
113566.58 -162189.88 1036.7208
114140.15 -163009.02 1041.9568
114713.71 -163828.16 1047.1927
115287.28 -164647.3 1052.4287
115860.85 -165466.44 1057.6648
116434.42 -166285.58 1062.9008
117007.99 -167104.72 1068.1367
117581.55 -167923.88 1073.3727
118155.12 -168743.02 1078.6086
118728.7 -169562.16 1083.8446
119302.27 -170381.3 1089.0806
119875.83 -171200.44 1094.3165
120449.4 -172019.58 1099.5525
121022.97 -172838.72 1104.7885
121596.54 -173657.86 1110.0244
122170.11 -174477 1115.2604
122743.67 -175296.14 1120.4963
123317.24 -176115.28 1125.7323
123890.81 -176934.42 1130.9683
124464.38 -177753.56 1136.2042
125037.95 -178572.7 1141.4402
125611.52 -179391.84 1146.6761
126185.09 -180210.98 1151.9121
126758.66 -181030.12 1157.1481
127332.23 -181849.27 1162.384
127905.79 -182668.41 1167.62
128479.36 -183487.55 1172.856
129052.93 -184306.69 1178.0919
129626.5 -185125.83 1183.3279
130200.06 -185944.97 1188.5638
130773.63 -186764.11 1193.7998
131347.2 -187583.25 1199.0358
131920.77 -188402.39 1204.2717
132494.34 -189221.53 1209.5077
133067.91 -190040.67 1214.7437
133641.48 -190859.81 1219.9796
134215.05 -191678.95 1225.2156
134788.61 -192498.09 1230.4515
135362.19 -193317.23 1235.6875
135935.75 -194136.38 1240.9235
136509.33 -194955.52 1246.1594
137082.89 -195774.66 1251.3954
137656.45 -196593.8 1256.6313
138230.03 -197412.94 1261.8673
138803.59 -198232.08 1267.1033
139377.16 -199051.22 1272.3392
139950.73 -199870.36 1277.5752
140524.3 -200689.5 1282.8112
141097.88 -201508.64 1288.0471
141671.44 -202327.78 1293.2831
142245 -203146.92 1298.519
142818.58 -203966.06 1303.755
143392.14 -204785.2 1308.991
143965.72 -205604.34 1314.2269
144539.28 -206423.48 1319.4629
145112.84 -207242.62 1324.6989
145686.42 -208061.77 1329.9348
146259.98 -208880.91 1335.1708
146833.56 -209700.05 1340.4067
147407.12 -210519.19 1345.6427
147980.69 -211338.33 1350.8787
148554.27 -212157.47 1356.1147
149127.83 -212976.61 1361.3507
149701.39 -213795.75 1366.5867
150274.97 -214614.89 1371.8226
150848.53 -215434.03 1377.0586
151422.11 -216253.17 1382.2946
151995.67 -217072.31 1387.5305
152569.23 -217891.45 1392.7665
153142.81 -218710.59 1398.0024
153716.38 -219529.73 1403.2384
154289.95 -220348.88 1408.4744
155437.08 -221987.16 1418.9463
-12713.575 2702.3538 249.56676
-13691.543 2910.2273 268.76419
-14669.51 3118.1006 287.96164
-15647.478 3325.9741 307.15909
-16625.445 3533.8474 326.35654
-17603.412 3741.7207 345.55399
-19559.348 4157.4673 383.94885
-21515.281 4573.2144 422.34375
-22493.248 4781.0874 441.5412
-23471.217 4988.9609 460.73862
-24449.184 5196.8345 479.93607
-27383.086 5820.4546 537.52838
-51832.27 11017.289 1017.4645
-52810.238 11225.162 1036.6619
-53788.203 11433.035 1055.8594
-54766.172 11640.909 1075.0568
-55744.137 11848.782 1094.2543
-56722.105 12056.656 1113.4517
-57700.074 12264.529 1132.6492
-58678.039 12472.402 1151.8466
-59656.008 12680.276 1171.0441
-60633.977 12888.149 1190.2415
-61611.941 13096.022 1209.4388
-62589.91 13303.896 1228.6364
-63567.879 13511.77 1247.8337
-64545.844 13719.643 1267.0312
-65523.812 13927.517 1286.2286
-66501.781 14135.39 1305.4261
-67479.75 14343.263 1324.6235
-68457.711 14551.137 1343.821
-69435.68 14759.01 1363.0184
-74325.516 15798.377 1459.0056
-75303.484 16006.25 1478.2031
-76281.453 16214.123 1497.4005
-77259.422 16421.996 1516.598
-78237.391 16629.869 1535.7954
-79215.352 16837.744 1554.9929
-80193.32 17045.617 1574.1903
-81171.289 17253.49 1593.3877
-82149.258 17461.363 1612.5852
-83127.227 17669.236 1631.7826
-84105.188 17877.109 1650.9801
-85083.156 18084.984 1670.1775
-86061.125 18292.857 1689.375
-87039.094 18500.73 1708.5724
-88017.062 18708.604 1727.7699
-88995.031 18916.477 1746.9673
-89972.992 19124.35 1766.1648
-90950.961 19332.225 1785.3622
-162342.58 34506.98 3186.7754
