# .PCD v0.7 - Point Cloud Data file format
VERSION 0.7
FIELDS x y z
SIZE 4 4 4
TYPE F F F
COUNT 1 1 1
WIDTH 1853
HEIGHT 1
VIEWPOINT 0 0 0 1 0 0 0
POINTS 1853
DATA ascii
261.44174 2988.2927 41.886543
313.55481 2983.2749 41.886543
469.25766 2962.7761 41.886543
520.89374 2954.1353 41.886543
572.37122 2944.5945 41.886543
623.67426 2934.1567 41.886543
725.69495 2910.6035 41.886543
776.38147 2897.4951 41.886543
826.83148 2883.5039 41.886543
877.0296 2868.6345 41.886543
926.96063 2852.8914 41.886543
976.60925 2836.2793 41.886543
1220.0909 2740.3691 41.886543
1267.7312 2718.6584 41.886543
1499.8538 2597.823 41.886543
1633.7578 2515.7664 41.886543
1677.4152 2486.8704 41.886543
2297.9094 1928.1748 41.886543
2331.2107 1887.7771 41.886543
2395.6731 1805.269 41.886543
2426.8145 1763.1838 41.886543
2983.2749 313.55481 41.886543
2999.2507 52.352116 41.886543
2995.5967 -156.99257 41.886543
2944.5945 -572.37122 41.886543
2934.1567 -623.67426 41.886543
2868.6345 -877.0296 41.886543
2781.2805 -1123.7102 41.886543
2761.2454 -1172.0791 41.886543
2740.3691 -1220.0909 41.886543
-1763.1838 2426.8145 41.886543
-1720.5615 2457.2166 41.886543
-1633.7578 2515.7664 41.886543
-1454.2871 2623.6033 41.886543
-1408.2773 2648.5845 41.886543
-1361.8387 2672.759 41.886543
-1267.7312 2718.6584 41.886543
-1172.0791 2761.2454 41.886543
-1123.7102 2781.2805 41.886543
-1074.999 2800.4683 41.886543
-1025.9604 2818.803 41.886543
-976.60925 2836.2793 41.886543
-926.96063 2852.8914 41.886543
-877.0296 2868.6345 41.886543
-826.83148 2883.5039 41.886543
-776.38147 2897.4951 41.886543
-725.69495 2910.6035 41.886543
-674.78735 2922.8252 41.886543
-623.67426 2934.1567 41.886543
-572.37122 2944.5945 41.886543
-520.89374 2954.1353 41.886543
-469.25766 2962.7761 41.886543
-417.47861 2970.5146 41.886543
-365.57239 2977.3481 41.886543
-209.24902 2992.4004 41.886543
-52.352116 2999.2507 41.886543
0 3999.6101 55.848721
69.802818 3999.001 55.848721
348.58899 3984.3904 55.848721
1035.1753 3863.3267 55.848721
1102.4419 3844.6719 55.848721
1235.9475 3803.8552 55.848721
3563.6787 1815.785 55.848721
3997.1736 -139.58438 55.848721
3994.1287 -209.32343 55.848721
3989.8672 -278.99869 55.848721
3977.6997 -418.07309 55.848721
3969.7976 -487.42987 55.848721
3938.8469 -694.52502 55.848721
3926.126 -763.16156 55.848721
3880.8047 -967.59326 55.848721
-1999.8051 3463.7639 55.848721
-1939.0494 3498.1377 55.848721
-1877.7032 3531.446 55.848721
-1815.785 3563.6787 55.848721
-1753.3137 3594.8257 55.848721
-1690.3082 3624.8777 55.848721
-1626.788 3653.8257 55.848721
-1562.7722 3681.6604 55.848721
-1433.332 3733.9578 55.848721
-1367.9473 3758.4041 55.848721
-1235.9475 3803.8552 55.848721
-1169.3728 3824.8462 55.848721
-1102.4419 3844.6719 55.848721
-1035.1753 3863.3267 55.848721
-899.71649 3897.1003 55.848721
-831.56567 3912.209 55.848721
-763.16156 3926.126 55.848721
-694.52502 3938.8469 55.848721
-625.67688 3950.3682 55.848721
-556.63812 3960.6863 55.848721
-487.42987 3969.7976 55.848721
-418.07309 3977.6997 55.848721
-348.58899 3984.3904 55.848721
-278.99869 3989.8672 55.848721
-209.32343 3994.1287 55.848721
0 4999.5127 69.810905
87.253525 4998.751 69.810905
261.65427 4992.6611 69.810905
348.74838 4987.334 69.810905
609.28729 4962.2471 69.810905
782.09607 4937.9604 69.810905
4998.751 87.253525 69.810905
-2112.8853 4531.0972 69.810905
-2033.485 4567.2822 69.810905
-1791.665 4667.4473 69.810905
-1709.9341 4698.0049 69.810905
-1461.7161 4781.0576 69.810905
-953.95197 4907.6577 69.810905
-522.59137 4972.125 69.810905
-261.65427 4992.6611 69.810905
0 5999.415 83.773087
104.70423 5998.5015 83.773087
313.98514 5991.1934 83.773087
418.49805 5984.8008 83.773087
522.88348 5976.5854 83.773087
627.10962 5966.5498 83.773087
-2440.1819 5480.7383 83.773087
-2344.1582 5522.4907 83.773087
-2247.4204 5562.561 83.773087
-2149.998 5600.9365 83.773087
-2051.9209 5637.606 83.773087
-1953.2185 5672.5586 83.773087
-1853.9213 5705.7827 83.773087
-1754.0592 5737.269 83.773087
-1653.663 5767.0078 83.773087
-1552.7629 5794.9902 83.773087
-1451.3899 5821.207 83.773087
-1349.5747 5845.6504 83.773087
-1247.3485 5868.3135 83.773087
-1144.7424 5889.189 83.773087
-1041.7875 5908.2705 83.773087
-938.51532 5925.5522 83.773087
-731.14478 5954.6963 83.773087
-522.88348 5976.5854 83.773087
-418.49805 5984.8008 83.773087
-313.98514 5991.1934 83.773087
-209.37657 5995.7603 83.773087
-104.70423 5998.5015 83.773087
122.15494 6998.2515 97.735268
6791.4082 1693.2882 97.735268
6870.7207 1335.5327 97.735268
6892.9824 1215.4187 97.735268
6960.9746 -731.62793 97.735268
6947.146 -853.00226 97.735268
-2621.9905 6489.6543 97.735268
-2508.3311 6534.4258 97.735268
-2393.9077 6577.207 97.735268
-2278.7549 6617.9849 97.735268
-2046.4025 6693.481 97.735268
-1929.2734 6728.1758 97.735268
-1811.5568 6760.8218 97.735268
-1693.2882 6791.4082 97.735268
-1574.5039 6819.9258 97.735268
-1455.24 6846.3657 97.735268
-1335.5327 6870.7207 97.735268
-1215.4187 6892.9824 97.735268
-1094.9346 6913.1445 97.735268
-974.11676 6931.2007 97.735268
-366.31598 6989.7256 97.735268
-2735.8945 7516.8081 111.69744
-2604.2913 7563.4111 111.69744
-2471.895 7607.7104 111.69744
-2338.7456 7649.6924 111.69744
-2204.8838 7689.3438 111.69744
-2070.3506 7726.6533 111.69744
-1935.1865 7761.6094 111.69744
-2480.4944 8650.5117 125.65962
-2329.1443 8692.4854 125.65962
-2177.0847 8731.8105 125.65962
-2418.9832 9702.0117 139.62181
-1907.9039 9815.3154 139.62181
-1736.3125 9847.1172 139.62181
-1564.1921 9875.9209 139.62181
-1391.5953 9901.7158 139.62181
-523.30853 9985.3223 139.62181
-348.96094 9992.9346 139.62181
-2846.7319 10624.148 153.58398
-2474.2205 10717.026 153.58398
-1720.6113 10863.513 153.58398
-1530.7549 10891.887 153.58398
-1340.4321 10916.943 153.58398
-1149.701 10938.675 153.58398
11851.104 1877.0306 167.54617
11882.059 1669.9144 167.54617
11909.393 1462.2896 167.54617
11933.1 1254.2192 167.54617
11953.171 1045.767 167.54617
11969.602 836.99609 167.54617
11982.387 627.97028 167.54617
11997.003 -209.40846 167.54617
11991.521 -418.75314 167.54617
11982.387 -627.97028 167.54617
11969.602 -836.99609 167.54617
11953.171 -1045.767 167.54617
-3508.1184 11474.538 167.54617
-3307.3259 11534.016 167.54617
-3105.5259 11589.98 167.54617
-1877.0306 11851.104 167.54617
-1462.2896 11909.393 167.54617
-1254.2192 11933.1 167.54617
-1045.767 11953.171 167.54617
-836.99609 11969.602 167.54617
-627.97028 11982.387 167.54617
12872.23 1809.074 181.50835
12901.842 1584.147 181.50835
12927.524 1358.7375 181.50835
12949.269 1132.9142 181.50835
12967.068 906.74579 181.50835
12980.919 680.30109 181.50835
12996.753 -226.85916 181.50835
12990.814 -453.64923 181.50835
12980.919 -680.30109 181.50835
12967.068 -906.74579 181.50835
-3800.4617 12430.75 181.50835
-3582.9363 12495.184 181.50835
-3364.3196 12555.812 181.50835
-1809.074 12872.23 181.50835
13862.401 1948.2335 195.47054
13894.292 1706.0045 195.47054
13921.949 1463.2559 195.47054
13945.366 1220.0614 195.47054
13964.535 976.49542 195.47054
13979.451 732.63196 195.47054
13996.503 -244.30988 195.47054
13990.107 -488.54532 195.47054
13979.451 -732.63196 195.47054
13964.535 -976.49542 195.47054
-3858.5469 13456.352 195.47054
14886.741 1827.8619 209.43271
14916.374 1567.7742 209.43271
14941.464 1307.2087 209.43271
14962.002 1046.2451 209.43271
14977.982 784.96283 209.43271
14989.401 523.44141 209.43271
14998.538 9.1839557e-13 209.43271
14996.254 -261.76059 209.43271
14989.401 -523.44141 209.43271
14977.982 -784.96283 209.43271
14962.002 -1046.2451 209.43271
-4134.1572 14417.52 209.43271
-3881.9072 14487.475 209.43271
-3628.4746 14553.018 209.43271
-2087.3931 14852.573 209.43271
15879.19 1949.7195 223.39488
15910.799 1672.2924 223.39488
15937.562 1394.356 223.39488
15959.469 1115.9948 223.39488
15976.515 837.2937 223.39488
15988.694 558.33752 223.39488
15996.004 279.21127 223.39488
15998.44 9.7962198e-13 223.39488
15996.004 -279.21127 223.39488
15988.694 -558.33752 223.39488
15976.515 -837.2937 223.39488
-4140.7012 15453.307 223.39488
-3870.373 15523.219 223.39488
-3598.866 15588.401 223.39488
-2502.7075 15801.473 223.39488
-1949.7195 15879.19 223.39488
-1672.2924 15910.799 223.39488
-1394.356 15937.562 223.39488
16905.225 1776.8107 237.35707
16933.658 1481.5032 237.35707
16956.936 1185.7445 237.35707
16975.047 889.62451 237.35707
16987.988 593.23364 237.35707
16995.754 296.66199 237.35707
16998.344 1.0408483e-12 237.35707
16995.754 -296.66199 237.35707
16987.988 -593.23364 237.35707
16975.047 -889.62451 237.35707
-4399.4951 16419.139 237.35707
-4112.2715 16493.42 237.35707
-3534.1543 16626.889 237.35707
-3243.4368 16686.035 237.35707
-2951.7312 16740.1 237.35707
-2659.1267 16789.064 237.35707
-2365.7122 16832.916 237.35707
-2071.5769 16871.641 237.35707
-1776.8107 16905.225 237.35707
17899.648 1881.329 251.31924
17929.756 1568.6504 251.31924
17954.402 1255.4941 251.31924
17973.58 941.95538 251.31924
17987.281 628.1297 251.31924
17995.504 314.1127 251.31924
17998.246 1.1020747e-12 251.31924
17995.504 -314.1127 251.31924
17987.281 -628.1297 251.31924
17973.58 -941.95538 251.31924
-4658.2886 17384.971 251.31924
-4354.1694 17463.621 251.31924
-4048.7244 17536.951 251.31924
-3434.2271 17667.566 251.31924
-3125.3625 17724.812 251.31924
-2815.5459 17776.656 251.31924
-2504.8716 17823.088 251.31924
-2193.4343 17864.09 251.31924
-1881.329 17899.648 251.31924
18894.074 1985.8472 265.28143
18925.854 1655.7977 265.28143
18951.869 1325.2438 265.28143
18972.111 994.28625 265.28143
18986.574 663.02582 265.28143
18995.254 331.56339 265.28143
18998.148 1.163301e-12 265.28143
18995.254 -331.56339 265.28143
-4917.0825 18350.803 265.28143
-4596.0679 18433.822 265.28143
-4273.6533 18511.227 265.28143
-3625.0176 18649.098 265.28143
-3298.9937 18709.523 265.28143
-2971.9651 18764.25 265.28143
-2644.0312 18813.26 265.28143
-2315.2917 18856.539 265.28143
-1985.8472 18894.074 265.28143
19888.5 2090.3655 279.24362
19921.951 1742.9449 279.24362
19949.336 1394.9935 279.24362
19970.645 1046.6171 279.24362
19985.869 697.92188 279.24362
19995.004 349.0141 279.24362
19998.051 1.2245274e-12 279.24362
19995.004 -349.0141 279.24362
19985.869 -697.92188 279.24362
-4837.9663 19404.023 279.24362
-4498.5825 19485.502 279.24362
-4157.8286 19561.045 279.24362
-3815.8079 19630.631 279.24362
-3472.625 19694.234 279.24362
-3128.3843 19751.842 279.24362
-2783.1907 19803.432 279.24362
-2437.1492 19848.988 279.24362
20918.049 1830.0922 293.20578
20946.803 1464.7432 293.20578
20969.176 1098.948 293.20578
20985.162 732.81799 293.20578
20997.953 1.2857538e-12 293.20578
20994.756 -366.46481 293.20578
20985.162 -732.81799 293.20578
-4723.5117 20459.777 293.20578
-4365.7197 20539.098 293.20578
-4006.5984 20612.162 293.20578
-3646.2563 20678.947 293.20578
-3284.8035 20739.434 293.20578
-2922.3503 20793.602 293.20578
-2559.0068 20841.438 293.20578
21914.146 1917.2394 307.16797
21944.27 1534.4928 307.16797
21967.709 1151.2788 307.16797
21984.455 767.71411 307.16797
21994.506 383.91553 307.16797
21997.855 1.3469801e-12 307.16797
21994.506 -383.91553 307.16797
21984.455 -767.71411 307.16797
-5321.7627 21344.426 307.16797
-4948.4409 21434.053 307.16797
-4573.6113 21517.15 307.16797
-4197.3887 21593.693 307.16797
-3819.8875 21663.658 307.16797
-3441.2227 21727.025 307.16797
-3061.5098 21783.773 307.16797
22910.244 2004.3867 321.13016
22941.736 1604.2426 321.13016
22966.24 1203.6096 321.13016
22983.748 802.61017 321.13016
22994.256 401.36621 321.13016
22997.758 1.4082066e-12 321.13016
22994.256 -401.36621 321.13016
22983.748 -802.61017 321.13016
-5563.6611 22314.627 321.13016
-5173.3701 22408.326 321.13016
-4781.5029 22495.201 321.13016
-4388.1792 22575.225 321.13016
-3993.5188 22648.371 321.13016
-3597.6421 22714.617 321.13016
-2802.7217 22826.336 321.13016
23939.203 1673.9922 335.09235
23964.773 1255.9406 335.09235
23983.041 837.50629 335.09235
23994.006 418.81693 335.09235
23997.66 1.4694329e-12 335.09235
23994.006 -418.81693 335.09235
-4989.394 23473.254 335.09235
-4578.9697 23556.756 335.09235
-3754.0613 23702.209 335.09235
-3339.8289 23764.117 335.09235
-2924.5791 23818.785 335.09235
24902.439 2178.6812 349.0545
24936.67 1743.7418 349.0545
24963.305 1308.2714 349.0545
24982.336 872.40234 349.0545
24993.756 436.26764 349.0545
24997.562 1.5306593e-12 349.0545
24993.756 -436.26764 349.0545
-6047.458 24255.029 349.0545
-5623.228 24356.877 349.0545
-5197.2856 24451.307 349.0545
-4340.7812 24617.795 349.0545
25898.537 2265.8284 363.01669
25934.137 1813.4916 363.01669
25961.838 1360.6022 363.01669
25981.629 907.29846 363.01669
25993.506 453.71832 363.01669
25993.506 -453.71832 363.01669
-5848.1572 25331.152 363.01669
-4960.5503 25519.818 363.01669
-4066.8997 25677.395 363.01669
-3618.1479 25744.461 363.01669
26931.604 1883.2412 376.97888
26960.369 1412.9331 376.97888
26980.922 942.19458 376.97888
26993.256 471.16904 376.97888
26997.367 1.653112e-12 376.97888
26993.256 -471.16904 376.97888
-6073.0864 26305.428 376.97888
-5613.0684 26407.41 376.97888
-4223.3188 26664.986 376.97888
-3757.3074 26734.631 376.97888
27929.07 1952.9908 390.94107
27958.902 1465.2639 390.94107
27993.006 488.61975 390.94107
27997.271 1.7143384e-12 390.94107
27993.006 -488.61975 390.94107
-3896.467 27724.803 390.94107
28926.537 2022.7406 404.90323
28957.434 1517.5947 404.90323
28979.51 1011.9868 404.90323
28992.756 506.07047 404.90323
28997.174 1.7755647e-12 404.90323
28992.756 -506.07047 404.90323
29924.004 2092.4902 418.86542
29955.965 1569.9257 418.86542
29992.508 523.52118 418.86542
29997.076 1.8367911e-12 418.86542
29992.508 -523.52118 418.86542
-4692.5767 29627.762 418.86542
-4174.7861 29705.146 418.86542
30954.498 1622.2565 432.82761
30978.096 1081.7789 432.82761
30996.979 1.8980176e-12 432.82761
30992.258 -540.97186 432.82761
-4313.9458 30695.318 432.82761
31918.938 2231.9895 446.78976
31953.029 1674.5874 446.78976
31977.389 1116.675 446.78976
31992.008 558.42255 446.78976
31996.881 1.959244e-12 446.78976
31992.008 -558.42255 446.78976
-6105.2925 31409.008 446.78976
-5556.2002 31510.775 446.78976
32951.562 1726.9182 460.75195
32976.684 1151.5712 460.75195
32991.758 575.87329 460.75195
32996.785 2.0204702e-12 460.75195
33913.871 2371.489 474.71414
33950.094 1779.249 474.71414
33975.977 1186.4673 474.71414
33991.508 593.32397 474.71414
33996.688 2.0816966e-12 474.71414
34911.34 2441.2385 488.67633
34948.625 1831.58 488.67633
34975.27 1221.3633 488.67633
34991.258 610.77466 488.67633
34996.59 2.142923e-12 488.67633
-6677.6641 34353.602 488.67633
35908.805 2510.9883 502.63849
35947.16 1883.9108 502.63849
35974.562 1256.2594 502.63849
35996.492 2.2041494e-12 502.63849
36906.273 2580.738 516.60071
36945.691 1936.2416 516.60071
36973.855 1291.1555 516.60071
36990.758 645.67609 516.60071
-7059.2446 36316.664 516.60071
-6424.3564 36434.336 516.60071
37996.297 2.326602e-12 530.56287
38942.754 2040.9033 544.52502
38972.441 1360.9478 544.52502
38990.258 680.57751 544.52502
38996.199 2.3878284e-12 544.52502
39971.738 1395.8438 558.48724
39990.008 698.0282 558.48724
39996.102 2.4490548e-12 558.48724
40989.758 715.47894 572.4494
40996.004 2.5102813e-12 572.4494
41970.324 1465.636 586.41156
41989.512 732.92963 586.41156
41995.906 2.5715077e-12 586.41156
42969.617 1500.5321 600.37378
42995.809 2.6327339e-12 600.37378
43935.418 2302.5576 614.33594
43995.711 2.6939603e-12 614.33594
44995.613 2.7551867e-12 628.2981
-18231.281 103394.73 1466.0289
-18404.912 104379.45 1479.9911
-18578.543 105364.16 1493.9534
-20605.363 106005.4 1507.9155
-18752.176 106348.87 1507.9155
-20796.152 106986.93 1521.8777
-18925.807 107333.58 1521.8777
-20986.943 107968.46 1535.8398
-19099.438 108318.3 1535.8398
-21177.734 108950 1549.802
-19273.068 109303.01 1549.802
-21368.523 109931.53 1563.7643
-19446.699 110287.72 1563.7643
-21559.314 110913.06 1577.7264
-19620.332 111272.43 1577.7264
-21750.105 111894.59 1591.6886
-19793.963 112257.14 1591.6886
-21940.896 112876.12 1605.6508
-19967.594 113241.85 1605.6508
-22131.686 113857.66 1619.6129
-20141.225 114226.56 1619.6129
-22322.477 114839.19 1633.5751
-20314.855 115211.27 1633.5751
-22513.268 115820.72 1647.5374
-20488.488 116195.98 1647.5374
-22704.057 116802.25 1661.4995
-20662.119 117180.7 1661.4995
-22894.848 117783.78 1675.4617
-20835.75 118165.41 1675.4617
-21009.381 119150.12 1689.4238
-23276.428 119746.84 1703.386
-23467.219 120728.38 1717.3483
-21356.645 121119.55 1717.3483
-24421.17 125636.03 1787.1591
-25375.123 130543.69 1856.97
-25565.912 131525.22 1870.9323
-23266.588 131951.38 1870.9323
-25756.703 132506.75 1884.8944
-26329.074 135451.34 1926.7809
-26519.865 136432.88 1940.743
-24134.744 136874.94 1940.743
-26710.656 137414.41 1954.7053
-24308.375 137859.64 1954.7053
-26901.445 138395.94 1968.6675
-24482.006 138844.36 1968.6675
-27092.236 139377.47 1982.6296
-24655.637 139829.06 1982.6296
-27283.027 140359 1996.5918
-24829.27 140813.78 1996.5918
-27473.816 141340.53 2010.554
-25002.9 141798.5 2010.554
-27664.607 142322.06 2024.5162
-25176.531 142783.2 2024.5162
-27855.398 143303.59 2038.4784
-25350.162 143767.92 2038.4784
-28046.188 144285.12 2052.4404
-28236.979 145266.66 2066.4028
-28427.77 146248.19 2080.365
-28618.559 147229.72 2094.3271
-28809.35 148211.25 2108.2893
-29000.141 149192.78 2122.2515
-29190.93 150174.31 2136.2136
-29381.721 151155.84 2150.1758
-29572.512 152137.38 2164.1379
-29763.303 153118.91 2178.1001
-29954.092 154100.44 2192.0623
-30144.883 155081.98 2206.0244
-30335.674 156063.52 2219.9868
-30526.463 157045.05 2233.949
-30717.254 158026.58 2247.9111
-30908.045 159008.11 2261.8733
-31098.834 159989.64 2275.8354
-31289.625 160971.17 2289.7976
-31480.416 161952.7 2303.7598
-31671.205 162934.23 2317.7219
-31861.996 163915.77 2331.6841
-32052.787 164897.3 2345.6462
-32243.576 165878.83 2359.6084
-32434.367 166860.36 2373.5708
0 0 0
0 0 0
0 0 0
0 0 0
0 0 0
0 0 0
0 0 0
0 0 0
0 0 0
0 0 0
0 0 0
0 0 0
0 0 0
0 0 0
0 0 0
0 0 0
0 0 0
0 0 0
0 0 0
0 0 0
0 0 0
0 0 0
0 0 0
0 0 0
0 0 0
0 0 0
0 0 0
0 0 0
0 0 0
0 0 0
0 0 0
0 0 0
0 0 0
0 0 0
0 0 0
0 0 0
0 0 0
0 0 0
0 0 0
0 0 0
0 0 0
0 0 0
0 0 0
0 0 0
0 0 0
0 0 0
0 0 0
0 0 0
0 0 0
0 0 0
0 0 0
0 0 0
0 0 0
0 0 0
0 0 0
0 0 0
0 0 0
0 0 0
0 0 0
0 0 0
0 0 0
0 0 0
0 0 0
0 0 0
0 0 0
0 0 0
0 0 0
0 0 0
0 0 0
0 0 0
0 0 0
0 0 0
0 0 0
0 0 0
0 0 0
0 0 0
0 0 0
0 0 0
0 0 0
0 0 0
0 0 0
0 0 0
0 0 0
0 0 0
0 0 0
0 0 0
0 0 0
0 0 0
0 -0 0
0 -0 0
0 -0 0
0 -0 0
0 -0 0
0 -0 0
0 -0 0
0 -0 0
0 -0 0
0 -0 0
0 -0 0
0 -0 0
0 -0 0
0 -0 0
0 -0 0
0 -0 0
0 -0 0
0 -0 0
0 -0 0
0 -0 0
0 -0 0
0 -0 0
0 -0 0
0 -0 0
0 -0 0
0 -0 0
0 -0 0
0 -0 0
0 -0 0
0 -0 0
0 -0 0
0 -0 0
0 -0 0
0 -0 0
0 -0 0
0 -0 0
0 -0 0
0 -0 0
0 -0 0
0 -0 0
0 -0 0
0 -0 0
0 -0 0
0 -0 0
0 -0 0
0 -0 0
0 -0 0
0 -0 0
0 -0 0
0 -0 0
0 -0 0
0 -0 0
0 -0 0
0 -0 0
0 -0 0
0 -0 0
0 -0 0
0 -0 0
0 -0 0
0 -0 0
0 -0 0
0 -0 0
0 -0 0
0 -0 0
0 -0 0
0 -0 0
0 -0 0
0 -0 0
0 -0 0
0 -0 0
0 -0 0
0 -0 0
0 -0 0
0 -0 0
0 -0 0
0 -0 0
0 -0 0
0 -0 0
0 -0 0
0 -0 0
0 -0 0
0 -0 0
0 -0 0
0 -0 0
0 -0 0
0 -0 0
0 -0 0
0 -0 0
0 -0 0
0 -0 0
-0 -0 0
-0 -0 0
-0 -0 0
-0 -0 0
-0 -0 0
-0 -0 0
-0 -0 0
-0 -0 0
-0 -0 0
-0 -0 0
-0 -0 0
-0 -0 0
-0 -0 0
-0 -0 0
-0 -0 0
-0 -0 0
-0 -0 0
-0 -0 0
-0 -0 0
-0 -0 0
-0 -0 0
-0 -0 0
-0 -0 0
-0 -0 0
-0 -0 0
-0 -0 0
-0 -0 0
-0 -0 0
-0 -0 0
-0 -0 0
-0 -0 0
-0 -0 0
-0 -0 0
-0 -0 0
-0 -0 0
-0 -0 0
-0 -0 0
-0 -0 0
-0 -0 0
-0 -0 0
-0 -0 0
-0 -0 0
-0 -0 0
-0 -0 0
-0 -0 0
-0 -0 0
-0 -0 0
-0 -0 0
-0 -0 0
-0 -0 0
-0 -0 0
-0 -0 0
-0 -0 0
-0 -0 0
-0 -0 0
-0 -0 0
-0 -0 0
-0 -0 0
-0 -0 0
-0 -0 0
-0 -0 0
-0 -0 0
-0 -0 0
-0 -0 0
-0 -0 0
-0 -0 0
-0 -0 0
-0 -0 0
-0 -0 0
-0 -0 0
-0 -0 0
-0 -0 0
-0 -0 0
-0 -0 0
-0 -0 0
-0 -0 0
-0 -0 0
-0 -0 0
-0 -0 0
-0 -0 0
-0 -0 0
-0 -0 0
-0 -0 0
-0 -0 0
-0 -0 0
-0 0 0
-0 0 0
-0 0 0
-0 0 0
-0 0 0
-0 0 0
-0 0 0
-0 0 0
-0 0 0
-0 0 0
-0 0 0
-0 0 0
-0 0 0
-0 0 0
-0 0 0
-0 0 0
-0 0 0
-0 0 0
-0 0 0
-0 0 0
-0 0 0
-0 0 0
-0 0 0
-0 0 0
-0 0 0
-0 0 0
-0 0 0
-0 0 0
-0 0 0
-0 0 0
-0 0 0
-0 0 0
-0 0 0
-0 0 0
-0 0 0
-0 0 0
-0 0 0
-0 0 0
-0 0 0
-0 0 0
-0 0 0
-0 0 0
-0 0 0
-0 0 0
-0 0 0
-0 0 0
-0 0 0
-0 0 0
-0 0 0
-0 0 0
-0 0 0
-0 0 0
-0 0 0
-0 0 0
-0 0 0
-0 0 0
-0 0 0
-0 0 0
-0 0 0
-0 0 0
-0 0 0
-0 0 0
-0 0 0
-0 0 0
-0 0 0
-0 0 0
-0 0 0
-0 0 0
-0 0 0
-0 0 0
-0 0 0
-0 0 0
-0 0 0
-0 0 0
-0 0 0
-0 0 0
-0 0 0
-0 0 0
-0 0 0
-0 0 0
292.31781 956.12854 19.197443
422.54037 906.14075 19.197443
438.29037 898.62842 19.197443
544.53864 838.51599 19.197443
559.08984 828.88477 19.197443
694.53033 719.20721 19.197443
706.97644 706.97644 19.197443
838.51599 544.53864 19.197443
920.33521 390.65912 19.197443
933.40839 358.30191 19.197443
956.12854 292.31781 19.197443
965.7478 258.77136 19.197443
981.44629 190.77383 19.197443
987.50635 156.40564 19.197443
994.33862 104.5092 19.197443
996.01111 87.139679 19.197443
997.38019 69.743622 19.197443
981.44629 -190.77383 19.197443
977.96735 -207.87338 19.197443
945.3443 -325.50815 19.197443
939.51947 -341.95712 19.197443
933.40839 -358.30191 19.197443
920.33521 -390.65912 19.197443
913.37708 -406.66168 19.197443
906.14075 -422.54037 19.197443
857.00934 -514.94318 19.197443
681.87268 -731.21893 19.197443
629.20441 -777.00275 19.197443
615.54803 -787.86554 19.197443
601.7041 -798.48834 19.197443
-920.33521 390.65912 19.197443
-906.14075 422.54037 19.197443
-882.78485 469.38504 19.197443
-857.00934 514.94318 19.197443
-847.89178 529.82159 19.197443
-838.51599 544.53864 19.197443
-798.48834 601.7041 19.197443
-777.00275 629.20441 19.197443
-754.5705 655.93811 19.197443
-731.21893 681.87268 19.197443
-719.20721 694.53033 19.197443
-706.97644 706.97644 19.197443
-694.53033 719.20721 19.197443
-655.93811 754.5705 19.197443
-629.20441 777.00275 19.197443
-615.54803 787.86554 19.197443
-601.7041 798.48834 19.197443
-587.67694 808.86792 19.197443
-573.4707 819.0011 19.197443
-559.08984 828.88477 19.197443
-514.94318 857.00934 19.197443
-499.90787 865.86578 19.197443
-484.72028 874.4585 19.197443
-453.90683 890.84235 19.197443
-438.29037 898.62842 19.197443
-325.50815 945.3443 19.197443
139.48724 1994.7604 38.394886
243.69377 1984.7264 38.394886
278.29489 1980.1711 38.394886
312.81128 1975.0127 38.394886
381.54767 1962.8926 38.394886
517.54272 1931.4956 38.394886
551.1731 1922.1691 38.394886
749.07513 1854.026 38.394886
1089.0773 1677.032 38.394886
1175.3539 1617.7358 38.394886
1203.4082 1596.9767 38.394886
1231.0961 1575.7311 38.394886
1258.4088 1554.0055 38.394886
1311.8762 1509.141 38.394886
1338.0145 1486.0157 38.394886
1554.0055 1258.4088 38.394886
1596.9767 1203.4082 38.394886
1617.7358 1175.3539 38.394886
1714.0187 1029.8864 38.394886
1748.917 969.44055 38.394886
1781.6847 907.81366 38.394886
1797.2568 876.58075 38.394886
1840.6704 781.31824 38.394886
1866.8168 716.60382 38.394886
1879.0389 683.91425 38.394886
1890.6886 651.0163 38.394886
1901.7625 617.9201 38.394886
1912.2571 584.63562 38.394886
1931.4956 517.54272 38.394886
1940.2338 483.75464 38.394886
1948.381 449.81918 38.394886
1955.9347 415.74677 38.394886
1962.8926 381.54767 38.394886
1975.0127 312.81128 38.394886
1980.1711 278.29489 38.394886
1984.7264 243.69377 38.394886
1988.6772 209.0184 38.394886
1992.0222 174.27936 38.394886
1994.7604 139.48724 38.394886
1996.891 104.65263 38.394886
1998.4133 69.786133 38.394886
1999.3269 34.89838 38.394886
1996.891 -104.65263 38.394886
1992.0222 -174.27936 38.394886
1980.1711 -278.29489 38.394886
1975.0127 -312.81128 38.394886
1969.2526 -347.23236 38.394886
1962.8926 -381.54767 38.394886
1955.9347 -415.74677 38.394886
1948.381 -449.81918 38.394886
1940.2338 -483.75464 38.394886
1931.4956 -517.54272 38.394886
1922.1691 -551.1731 38.394886
-999.81573 1731.7316 38.394886
-969.44055 1748.917 38.394886
-938.77008 1765.5697 38.394886
-907.81366 1781.6847 38.394886
-876.58075 1797.2568 38.394886
-845.08075 1812.2815 38.394886
-813.32336 1826.7542 38.394886
-781.31824 1840.6704 38.394886
-749.07513 1854.026 38.394886
-716.60382 1866.8168 38.394886
-651.0163 1890.6886 38.394886
-617.9201 1901.7625 38.394886
-551.1731 1922.1691 38.394886
-517.54272 1931.4956 38.394886
-483.75464 1940.2338 38.394886
-449.81918 1948.381 38.394886
-415.74677 1955.9347 38.394886
-381.54767 1962.8926 38.394886
-347.23236 1969.2526 38.394886
-312.81128 1975.0127 38.394886
-278.29489 1980.1711 38.394886
-243.69377 1984.7264 38.394886
-209.0184 1988.6772 38.394886
-174.27936 1992.0222 38.394886
-104.65263 1996.891 38.394886
0 2999.447 57.592327
52.347572 2998.9902 57.592327
104.6792 2997.6199 57.592327
156.97893 2995.3364 57.592327
209.23085 2992.1406 57.592327
261.41904 2988.0334 57.592327
313.52759 2983.0159 57.592327
365.54065 2977.0896 57.592327
417.44235 2970.2568 57.592327
469.21692 2962.519 57.592327
520.84851 2953.8789 57.592327
572.32147 2944.3389 57.592327
623.62012 2933.9021 57.592327
674.72882 2922.5715 57.592327
776.31403 2897.2434 57.592327
826.7597 2883.2537 57.592327
876.95349 2868.3855 57.592327
926.88013 2852.6438 57.592327
976.52448 2836.033 57.592327
1123.6127 2781.0391 57.592327
1171.9774 2761.0056 57.592327
1219.9851 2740.1313 57.592327
1267.6211 2718.4224 57.592327
1361.7205 2672.5269 57.592327
1408.1552 2648.3547 57.592327
1499.7235 2597.5974 57.592327
1544.8295 2571.0281 57.592327
1633.616 2515.5481 57.592327
1720.4122 2457.0032 57.592327
1763.0308 2426.6038 57.592327
1805.1123 2395.4651 57.592327
2157.6218 2083.5911 57.592327
2263.7114 1967.8143 57.592327
2297.7097 1928.0074 57.592327
2331.0083 1887.6133 57.592327
2363.5967 1846.644 57.592327
2395.4651 1805.1123 57.592327
2457.0032 1720.4122 57.592327
2486.6543 1677.2695 57.592327
2515.5481 1633.616 57.592327
2571.0281 1544.8295 57.592327
2623.3755 1454.1608 57.592327
2648.3547 1408.1552 57.592327
2740.1313 1219.9851 57.592327
2761.0056 1171.9774 57.592327
2800.2251 1074.9058 57.592327
2818.5583 1025.8713 57.592327
2836.033 976.52448 57.592327
2852.6438 926.88013 57.592327
2883.2537 826.7597 57.592327
2962.519 469.21692 57.592327
2983.0159 313.52759 57.592327
2997.6199 -104.6792 57.592327
-1074.9058 2800.2251 57.592327
-1025.8713 2818.5583 57.592327
-976.52448 2836.033 57.592327
-926.88013 2852.6438 57.592327
-876.95349 2868.3855 57.592327
-826.7597 2883.2537 57.592327
-776.31403 2897.2434 57.592327
-725.63196 2910.3508 57.592327
-674.72882 2922.5715 57.592327
-623.62012 2933.9021 57.592327
-572.32147 2944.3389 57.592327
-520.84851 2953.8789 57.592327
-469.21692 2962.519 57.592327
-417.44235 2970.2568 57.592327
-365.54065 2977.0896 57.592327
-313.52759 2983.0159 57.592327
-261.41904 2988.0334 57.592327
-209.23085 2992.1406 57.592327
-156.97893 2995.3364 57.592327
-104.6792 2997.6199 57.592327
-52.347572 2998.9902 57.592327
0 3999.2629 76.789772
69.796761 3998.6538 76.789772
278.97449 3989.5208 76.789772
348.55872 3984.0444 76.789772
418.0368 3977.3545 76.789772
487.38754 3969.4529 76.789772
625.62256 3950.0254 76.789772
763.09534 3925.7852 76.789772
831.49353 3911.8694 76.789772
899.63837 3896.762 76.789772
967.50928 3880.4675 76.789772
1035.0854 3862.9912 76.789772
1102.3462 3844.3381 76.789772
1169.2712 3824.5142 76.789772
1235.8402 3803.5249 76.789772
1302.0326 3781.3772 76.789772
1433.2076 3733.6335 76.789772
1498.1503 3708.052 76.789772
1562.6365 3681.3408 76.789772
1626.6467 3653.5083 76.789772
1690.1615 3624.563 76.789772
1753.1615 3594.5137 76.789772
1815.6273 3563.3694 76.789772
1877.5402 3531.1394 76.789772
1938.8811 3497.834 76.789772
1999.6315 3463.4631 76.789772
2059.7727 3428.0374 76.789772
2178.1545 3354.064 76.789772
2236.3594 3315.5391 76.789772
2727.4907 2924.8757 76.789772
2827.9058 2827.9058 76.789772
2876.8289 2778.1213 76.789772
2924.8757 2727.4907 76.789772
2972.0315 2676.0291 76.789772
3018.282 2623.7524 76.789772
3063.613 2570.6765 76.789772
3235.4717 2350.7078 76.789772
3354.064 2178.1545 76.789772
3428.0374 2059.7727 76.789772
3463.4631 1999.6315 76.789772
3497.834 1938.8811 76.789772
3563.3694 1815.6273 76.789772
3594.5137 1753.1615 76.789772
3624.563 1690.1615 76.789772
3653.5083 1626.6467 76.789772
3733.6335 1433.2076 76.789772
3803.5249 1235.8402 76.789772
3824.5142 1169.2712 76.789772
3938.5051 694.46472 76.789772
3950.0254 625.62256 76.789772
3960.3423 556.58978 76.789772
3977.3545 418.0368 76.789772
3984.0444 348.55872 76.789772
3989.5208 278.97449 76.789772
3993.782 209.30525 76.789772
3996.8267 -139.57227 76.789772
-967.50928 3880.4675 76.789772
-899.63837 3896.762 76.789772
-831.49353 3911.8694 76.789772
-763.09534 3925.7852 76.789772
-625.62256 3950.0254 76.789772
-556.58978 3960.3423 76.789772
-487.38754 3969.4529 76.789772
-418.0368 3977.3545 76.789772
-348.55872 3984.0444 76.789772
-278.97449 3989.5208 76.789772
-209.30525 3993.782 76.789772
-139.57227 3996.8267 76.789772
-69.796761 3998.6538 76.789772
0 4999.0786 95.987213
87.245949 4998.3174 95.987213
261.63156 4992.2275 95.987213
435.69839 4980.0557 95.987213
522.54602 4971.6929 95.987213
609.23444 4961.8164 95.987213
695.73724 4950.4277 95.987213
782.0282 4937.5317 95.987213
868.08087 4923.1313 95.987213
953.86914 4907.2314 95.987213
1039.3668 4889.8369 95.987213
1124.548 4870.9526 95.987213
1209.3866 4850.5845 95.987213
1293.8567 4828.7393 95.987213
1461.5891 4780.6426 95.987213
1544.8002 4754.4062 95.987213
1627.5408 4726.7217 95.987213
1709.7855 4697.5972 95.987213
1791.5095 4667.042 95.987213
1953.2957 4601.6763 95.987213
2033.3085 4566.8857 95.987213
2269.5342 4454.2114 95.987213
2346.9253 4413.9243 95.987213
2423.6013 4372.2925 95.987213
2499.5393 4329.3291 95.987213
2574.7158 4285.0469 95.987213
2649.1082 4239.459 95.987213
2722.6934 4192.5801 95.987213
2795.4492 4144.4238 95.987213
2867.3538 4095.0054 95.987213
2938.3848 4044.3396 95.987213
3008.5205 3992.4417 95.987213
3077.74 3939.3276 95.987213
3146.022 3885.0137 95.987213
3213.3457 3829.5164 95.987213
3534.8823 3534.8823 95.987213
3596.0361 3472.6519 95.987213
3656.0947 3409.3633 95.987213
3715.0393 3345.0364 95.987213
3772.8525 3279.6907 95.987213
3885.0137 3146.022 95.987213
3939.3276 3077.74 95.987213
3992.4417 3008.5205 95.987213
4095.0054 2867.3538 95.987213
4144.4238 2795.4492 95.987213
4192.5801 2722.6934 95.987213
4239.459 2649.1082 95.987213
4285.0469 2574.7158 95.987213
4329.3291 2499.5393 95.987213
4372.2925 2423.6013 95.987213
4413.9243 2346.9253 95.987213
4454.2114 2269.5342 95.987213
4493.1421 2191.4519 95.987213
4530.7036 2112.7019 95.987213
4566.8857 2033.3085 95.987213
4726.7217 1627.5408 95.987213
4754.4062 1544.8002 95.987213
4805.4229 1377.9327 95.987213
4828.7393 1293.8567 95.987213
4870.9526 1124.548 95.987213
4889.8369 1039.3668 95.987213
4923.1313 868.08087 95.987213
4937.5317 782.0282 95.987213
4950.4277 695.73724 95.987213
4961.8164 609.23444 95.987213
4992.2275 261.63156 95.987213
-868.08087 4923.1313 95.987213
-609.23444 4961.8164 95.987213
-522.54602 4971.6929 95.987213
-435.69839 4980.0557 95.987213
-348.71808 4986.9009 95.987213
-261.63156 4992.2275 95.987213
-174.46533 4996.0332 95.987213
-87.245949 4998.3174 95.987213
0 5998.894 115.18465
104.69514 5997.9805 115.18465
209.3584 5995.2397 115.18465
313.95786 5990.6729 115.18465
418.4617 5984.2812 115.18465
522.83807 5976.0669 115.18465
627.05518 5966.0317 115.18465
731.0813 5954.1792 115.18465
834.8847 5940.5137 115.18465
938.43384 5925.0381 115.18465
1041.697 5907.7578 115.18465
1144.6429 5888.6777 115.18465
1247.2402 5867.8042 115.18465
1349.4576 5845.1431 115.18465
1451.2639 5820.7017 115.18465
1552.6281 5794.4868 115.18465
1653.5194 5766.5073 115.18465
1753.907 5736.771 115.18465
1853.7603 5705.2876 115.18465
1953.049 5672.0659 115.18465
2149.8115 5600.4502 115.18465
2247.2253 5562.0781 115.18465
2439.9702 5480.2627 115.18465
2629.7422 5391.7705 115.18465
2723.4409 5345.0537 115.18465
2816.3103 5296.7095 115.18465
2908.3215 5246.751 115.18465
2999.447 5195.1948 115.18465
3089.6589 5142.0562 115.18465
3178.9297 5087.3511 115.18465
3354.5391 4973.3086 115.18465
3440.8245 4914.0063 115.18465
3526.0615 4853.2075 115.18465
3610.2246 4790.9302 115.18465
3693.2881 4727.1934 115.18465
3775.2266 4662.0166 115.18465
3856.0149 4595.4194 115.18465
3935.6287 4527.4229 115.18465
4014.0437 4458.0474 115.18465
4091.2361 4387.3135 115.18465
4241.8589 4241.8589 115.18465
4315.2437 4167.1821 115.18465
4387.3135 4091.2361 115.18465
4662.0166 3775.2266 115.18465
4727.1934 3693.2881 115.18465
4790.9302 3610.2246 115.18465
4853.2075 3526.0615 115.18465
4914.0063 3440.8245 115.18465
4973.3086 3354.5391 115.18465
5031.0962 3267.2319 115.18465
5087.3511 3178.9297 115.18465
5195.1948 2999.447 115.18465
5246.751 2908.3215 115.18465
5296.7095 2816.3103 115.18465
5345.0537 2723.4409 115.18465
5391.7705 2629.7422 115.18465
5436.8447 2535.2422 115.18465
5480.2627 2439.9702 115.18465
5522.0112 2343.9548 115.18465
5562.0781 2247.2253 115.18465
5600.4502 2149.8115 115.18465
5637.1167 2051.7427 115.18465
5672.0659 1953.049 115.18465
5705.2876 1853.7603 115.18465
5794.4868 1552.6281 115.18465
5867.8042 1247.2402 115.18465
5888.6777 1144.6429 115.18465
5907.7578 1041.697 115.18465
5940.5137 834.8847 115.18465
5954.1792 731.0813 115.18465
5966.0317 627.05518 115.18465
-627.05518 5966.0317 115.18465
-522.83807 5976.0669 115.18465
-418.4617 5984.2812 115.18465
-313.95786 5990.6729 115.18465
-209.3584 5995.2397 115.18465
-104.69514 5997.9805 115.18465
0 6998.71 134.3821
122.14433 6997.644 134.3821
244.25145 6994.4468 134.3821
366.28418 6989.1187 134.3821
488.20532 6981.6616 134.3821
609.97778 6972.0776 134.3821
731.56439 6960.3701 134.3821
852.92816 6946.5425 134.3821
974.03217 6930.5991 134.3821
1094.8395 6912.5444 134.3821
1215.3132 6892.3838 134.3821
1335.4169 6870.124 134.3821
1455.1136 6845.7715 134.3821
1574.3672 6819.3335 134.3821
1693.1412 6790.8184 134.3821
1811.3994 6760.2349 134.3821
1929.106 6727.5918 134.3821
2046.2247 6692.8994 134.3821
2162.7202 6656.1689 134.3821
2278.5571 6617.4102 134.3821
2393.6997 6576.6362 134.3821
2508.1133 6533.8589 134.3821
2621.7629 6489.0908 134.3821
2734.6138 6442.3467 134.3821
2846.6318 6393.6396 134.3821
3068.0325 6290.3989 134.3821
3177.3479 6235.8965 134.3821
3285.6953 6179.4941 134.3821
3393.042 6121.2095 134.3821
3604.6021 5999.0654 134.3821
3708.7512 5935.2427 134.3821
3811.7708 5869.6123 134.3821
4308.8359 5515.0586 134.3821
4404.4307 5439.019 134.3821
4773.1089 5118.5322 134.3821
4861.7124 5034.4507 134.3821
4948.8354 4948.8354 134.3821
5034.4507 4861.7124 134.3821
5118.5322 4773.1089 134.3821
5201.0552 4683.0513 134.3821
5281.9937 4591.5669 134.3821
5361.3228 4498.6841 134.3821
5439.019 4404.4307 134.3821
5515.0586 4308.8359 134.3821
5662.0752 4113.7383 134.3821
5733.0078 4014.2952 134.3821
5802.1934 3913.6289 134.3821
6061.0605 3499.355 134.3821
6121.2095 3393.042 134.3821
6179.4941 3285.6953 134.3821
6393.6396 2846.6318 134.3821
6442.3467 2734.6138 134.3821
6489.0908 2621.7629 134.3821
6533.8589 2508.1133 134.3821
6576.6362 2393.6997 134.3821
6656.1689 2162.7202 134.3821
6692.8994 2046.2247 134.3821
6727.5918 1929.106 134.3821
6760.2349 1811.3994 134.3821
6790.8184 1693.1412 134.3821
6819.3335 1574.3672 134.3821
6845.7715 1455.1136 134.3821
6870.124 1335.4169 134.3821
6892.3838 1215.3132 134.3821
6912.5444 1094.8395 134.3821
-366.28418 6989.1187 134.3821
-244.25145 6994.4468 134.3821
-122.14433 6997.644 134.3821
557.94897 7979.0415 153.57954
974.77509 7938.9058 153.57954
1251.2451 7900.0508 153.57954
1388.9294 7877.0103 153.57954
1526.1907 7851.5703 153.57954
1662.9871 7823.7388 153.57954
1799.2767 7793.5239 153.57954
1935.0186 7760.9351 153.57954
2070.1709 7725.9824 153.57954
2204.6924 7688.6763 153.57954
2338.5425 7649.0283 153.57954
2471.6804 7607.0498 153.57954
2604.0652 7562.7544 153.57954
2866.4153 7467.2671 153.57954
2996.3005 7416.104 153.57954
3125.2729 7362.6816 153.57954
3253.2935 7307.0166 153.57954
3380.323 7249.126 153.57954
3506.323 7189.0273 153.57954
3631.2546 7126.7388 153.57954
3755.0803 7062.2788 153.57954
3877.7622 6995.668 153.57954
3999.2629 6926.9263 153.57954
4119.5454 6856.0747 153.57954
4238.5728 6783.1343 153.57954
4472.7188 6631.0781 153.57954
4587.7656 6552.0088 153.57954
4701.4155 6470.9434 153.57954
4813.6328 6387.9067 153.57954
4924.3843 6302.9243 153.57954
5247.5049 6036.564 153.57954
5352.0581 5944.063 153.57954
5454.9814 5849.7515 153.57954
5556.2427 5753.6577 153.57954
5655.8115 5655.8115 153.57954
5753.6577 5556.2427 153.57954
5849.7515 5454.9814 153.57954
6387.9067 4813.6328 153.57954
6470.9434 4701.4155 153.57954
6552.0088 4587.7656 153.57954
6783.1343 4238.5728 153.57954
6926.9263 3999.2629 153.57954
7416.104 2996.3005 153.57954
7516.1558 2735.657 153.57954
7562.7544 2604.0652 153.57954
7649.0283 2338.5425 153.57954
7688.6763 2204.6924 153.57954
7725.9824 2070.1709 153.57954
7793.5239 1799.2767 153.57954
7877.0103 1388.9294 153.57954
-279.14453 7993.6533 153.57954
-139.59352 7997.3076 153.57954
157.04271 8996.9707 172.77699
314.0376 8992.8594 172.77699
470.9368 8986.0098 172.77699
627.69257 8976.4219 172.77699
784.25714 8964.0996 172.77699
940.58282 8949.0479 172.77699
1096.6219 8931.2695 172.77699
1252.327 8910.7705 172.77699
1407.6508 8887.5566 172.77699
1562.5455 8861.6367 172.77699
1716.9645 8833.0166 172.77699
1870.8604 8801.7061 172.77699
2024.1864 8767.7148 172.77699
2176.8958 8731.0518 172.77699
2328.9421 8691.7305 172.77699
2480.2791 8649.7607 172.77699
2630.8604 8605.1562 172.77699
3077.614 8455.6748 172.77699
3224.717 8400.6758 172.77699
3370.8381 8343.1172 172.77699
3515.9321 8283.0166 172.77699
3659.9551 8220.3936 172.77699
3802.8635 8155.2671 172.77699
3944.6133 8087.6558 172.77699
4085.1616 8017.5811 172.77699
4224.4653 7945.064 172.77699
4362.4824 7870.127 172.77699
4499.1709 7792.7925 172.77699
4634.4883 7713.084 172.77699
4768.3945 7631.0264 172.77699
4900.8481 7546.644 172.77699
5031.8086 7459.9629 172.77699
5161.2368 7371.0098 172.77699
5289.0923 7279.811 172.77699
5415.3369 7186.395 172.77699
5539.9321 7090.79 172.77699
5662.8398 6993.0249 172.77699
5784.0225 6893.1294 172.77699
5903.4434 6791.1343 172.77699
6021.0654 6687.0708 172.77699
6136.854 6580.9702 172.77699
6250.7729 6472.8652 172.77699
6362.7881 6362.7881 172.77699
6580.9702 6136.854 172.77699
6687.0708 6021.0654 172.77699
6791.1343 5903.4434 172.77699
6893.1294 5784.0225 172.77699
6993.0249 5662.8398 172.77699
7090.79 5539.9321 172.77699
7186.395 5415.3369 172.77699
7279.811 5289.0923 172.77699
7371.0098 5161.2368 172.77699
7459.9629 5031.8086 172.77699
7546.644 4900.8481 172.77699
7631.0264 4768.3945 172.77699
7713.084 4634.4883 172.77699
7792.7925 4499.1709 172.77699
7870.127 4362.4824 172.77699
7945.064 4224.4653 172.77699
8017.5811 4085.1616 172.77699
8087.6558 3944.6133 172.77699
8155.2671 3802.8635 172.77699
8220.3936 3659.9551 172.77699
8605.1562 2630.8604 172.77699
8649.7607 2480.2791 172.77699
8691.7305 2328.9421 172.77699
8731.0518 2176.8958 172.77699
-157.04271 8996.9707 172.77699
0 9998.1572 191.97443
174.4919 9996.6348 191.97443
348.93066 9992.0664 191.97443
523.26312 9984.4551 191.97443
697.43616 9973.8018 191.97443
871.39679 9960.1113 191.97443
1045.092 9943.3857 191.97443
1218.4689 9923.6328 191.97443
1907.7383 9814.4629 191.97443
2078.7336 9779.6738 191.97443
2249.0959 9741.9053 191.97443
2418.7732 9701.1689 191.97443
2587.7134 9657.4785 191.97443
2755.8655 9610.8457 191.97443
2923.1782 9561.2852 191.97443
3089.6003 9508.8125 191.97443
3255.0815 9453.4434 191.97443
3419.571 9395.1943 191.97443
3583.019 9334.084 191.97443
3745.3755 9270.1299 191.97443
3906.5913 9203.3525 191.97443
4066.6169 9133.7715 191.97443
4225.4038 9061.4072 191.97443
4382.9038 8986.2842 191.97443
4539.0684 8908.4229 191.97443
4693.8506 8827.8486 191.97443
4847.2026 8744.585 191.97443
4999.0786 8658.6582 191.97443
5149.4316 8570.0938 191.97443
5298.2163 8478.918 191.97443
5445.3867 8385.1602 191.97443
5590.8984 8288.8477 191.97443
5876.7695 8088.6792 191.97443
6017.041 7984.8833 191.97443
6155.48 7878.6553 191.97443
6292.0439 7770.0273 191.97443
6690.0728 7430.0786 191.97443
6945.3037 7192.0723 191.97443
7069.7646 7069.7646 191.97443
7192.0723 6945.3037 191.97443
7312.1895 6818.7266 191.97443
7430.0786 6690.0728 191.97443
7545.7051 6559.3813 191.97443
7659.0327 6426.6914 191.97443
7984.8833 6017.041 191.97443
8088.6792 5876.7695 191.97443
8190.0107 5734.7075 191.97443
8288.8477 5590.8984 191.97443
8385.1602 5445.3867 191.97443
8478.918 5298.2163 191.97443
8570.0938 5149.4316 191.97443
8658.6582 4999.0786 191.97443
8744.585 4847.2026 191.97443
8827.8486 4693.8506 191.97443
8908.4229 4539.0684 191.97443
8986.2842 4382.9038 191.97443
9061.4072 4225.4038 191.97443
9133.7715 4066.6169 191.97443
9203.3525 3906.5913 191.97443
9270.1299 3745.3755 191.97443
9334.084 3583.019 191.97443
9508.8125 3089.6003 191.97443
9561.2852 2923.1782 191.97443
9657.4785 2587.7134 191.97443
191.94109 10996.298 211.17188
383.82373 10991.273 211.17188
575.58942 10982.9 211.17188
767.17981 10971.183 211.17188
958.5365 10956.122 211.17188
1149.6012 10937.725 211.17188
1340.3157 10915.996 211.17188
1530.6219 10890.941 211.17188
1720.462 10862.569 211.17188
1909.778 10830.889 211.17188
2098.5122 10795.909 211.17188
2286.6072 10757.641 211.17188
2474.0056 10716.096 211.17188
2660.6504 10671.286 211.17188
2846.4849 10623.226 211.17188
3031.4521 10571.93 211.17188
4119.9131 10197.143 211.17188
4297.2505 10123.688 211.17188
4473.2783 10047.148 211.17188
4647.9443 9967.5488 211.17188
4821.1938 9884.9121 211.17188
4992.9751 9799.2656 211.17188
5163.2354 9710.6338 211.17188
5331.9229 9619.0439 211.17188
5498.9863 9524.5234 211.17188
5664.375 9427.1025 211.17188
5989.9253 9223.6758 211.17188
6149.9883 9117.7324 211.17188
6308.1782 9009.0117 211.17188
7500.5996 8043.4082 211.17188
7639.834 7911.2798 211.17188
7776.7412 7776.7412 211.17188
7911.2798 7639.834 211.17188
8043.4082 7500.5996 211.17188
8173.0864 7359.0801 211.17188
8300.2754 7215.3193 211.17188
8424.9355 7069.3608 211.17188
8547.0303 6921.2485 211.17188
8666.5205 6771.0283 211.17188
8783.3721 6618.7451 211.17188
8897.5469 6464.4463 211.17188
9223.6758 5989.9253 211.17188
9326.8096 5828.0376 211.17188
9427.1025 5664.375 211.17188
9524.5234 5498.9863 211.17188
9619.0439 5331.9229 211.17188
9710.6338 5163.2354 211.17188
9799.2656 4992.9751 211.17188
9884.9121 4821.1938 211.17188
9967.5488 4647.9443 211.17188
10047.148 4473.2783 211.17188
10123.688 4297.2505 211.17188
10197.143 4119.9131 211.17188
10267.492 3941.321 211.17188
10334.714 3761.5283 211.17188
10517.414 3215.4961 211.17188
10571.93 3031.4521 211.17188
418.7168 11990.479 230.36931
627.91571 11981.346 230.36931
1254.1104 11932.063 230.36931
1462.1626 11908.358 230.36931
1669.7694 11881.027 230.36931
2083.394 11815.516 230.36931
2289.2859 11777.355 230.36931
2698.9153 11690.286 230.36931
2902.5278 11641.403 230.36931
3105.2561 11588.974 230.36931
3307.0388 11533.015 230.36931
3507.814 11473.542 230.36931
3707.5205 11410.575 230.36931
3906.0979 11344.132 230.36931
4103.4854 11274.233 230.36931
4299.623 11200.9 230.36931
4494.4507 11124.156 230.36931
4687.9097 11044.022 230.36931
4879.9404 10960.525 230.36931
5070.4844 10873.689 230.36931
5259.4844 10783.541 230.36931
5632.6206 10593.419 230.36931
5816.6431 10493.502 230.36931
5998.894 10390.39 230.36931
8916.0947 8028.0874 230.36931
9054.8457 7871.2573 230.36931
9190.8389 7712.0298 230.36931
9454.3867 7386.5762 230.36931
9581.8604 7220.4492 230.36931
9706.415 7052.123 230.36931
9828.0127 6881.6489 230.36931
9946.6172 6709.0781 230.36931
10062.192 6534.4639 230.36931
10174.702 6357.8594 230.36931
10284.112 6179.3179 230.36931
10390.39 5998.894 230.36931
10493.502 5816.6431 230.36931
10593.419 5632.6206 230.36931
10690.107 5446.8818 230.36931
10783.541 5259.4844 230.36931
10873.689 5070.4844 230.36931
10960.525 4879.9404 230.36931
11044.022 4687.9097 230.36931
11124.156 4494.4507 230.36931
11200.9 4299.623 230.36931
11533.015 3307.0388 230.36931
11588.974 3105.2561 230.36931
11641.403 2902.5278 230.36931
680.24207 12979.791 249.56676
1132.8158 12948.145 249.56676
1358.6196 12926.402 249.56676
1584.0095 12900.722 249.56676
1808.9169 12871.112 249.56676
2033.2733 12837.582 249.56676
2257.0103 12800.142 249.56676
2480.0598 12758.802 249.56676
2702.3538 12713.575 249.56676
2923.8247 12664.477 249.56676
3144.405 12611.52 249.56676
3364.0276 12554.722 249.56676
3582.6252 12494.099 249.56676
3800.1318 12429.671 249.56676
4016.4807 12361.456 249.56676
4231.606 12289.477 249.56676
4445.4424 12213.753 249.56676
4657.9248 12134.309 249.56676
4868.9883 12051.169 249.56676
5078.5684 11964.357 249.56676
5286.6021 11873.902 249.56676
5493.0249 11779.83 249.56676
5697.7749 11682.169 249.56676
5900.7891 11580.95 249.56676
9956.7422 8354.6992 249.56676
10101.036 8179.6572 249.56676
10242.252 8002.124 249.56676
10380.349 7822.1533 249.56676
10515.283 7639.8003 249.56676
10647.014 7455.1196 249.56676
10775.502 7268.168 249.56676
10900.708 7079.0024 249.56676
11022.594 6887.6807 249.56676
11141.121 6694.2612 249.56676
11256.256 6498.8022 249.56676
11367.961 6301.3638 249.56676
11476.203 6102.0054 249.56676
11580.95 5900.7891 249.56676
11682.169 5697.7749 249.56676
11779.83 5493.0249 249.56676
11873.902 5286.6021 249.56676
11964.357 5078.5684 249.56676
12051.169 4868.9883 249.56676
12289.477 4231.606 249.56676
12361.456 4016.4807 249.56676
12429.671 3800.1318 249.56676
12494.099 3582.6252 249.56676
12554.722 3364.0276 249.56676
732.56836 13978.237 268.76419
976.41064 13963.323 268.76419
1705.8563 13893.085 268.76419
1948.0643 13861.198 268.76419
2189.679 13825.089 268.76419
2670.8337 13740.248 268.76419
2910.2273 13691.543 268.76419
3386.2825 13581.637 268.76419
3622.7988 13520.47 268.76419
3858.2119 13455.184 268.76419
4325.4404 13312.338 268.76419
4557.1143 13234.82 268.76419
4787.3994 13153.272 268.76419
5016.2266 13067.718 268.76419
5243.5259 12978.182 268.76419
5469.2275 12884.693 268.76419
5693.2637 12787.279 268.76419
5915.5654 12685.971 268.76419
6136.0649 12580.798 268.76419
11030.117 8617.6719 268.76419
11178.837 8423.8574 268.76419
11324.15 8227.4766 268.76419
11466.016 8028.5903 268.76419
11604.387 7827.2578 268.76419
11739.225 7623.5415 268.76419
11870.485 7417.5024 268.76419
12242.419 6786.084 268.76419
12358.988 6571.3906 268.76419
12471.793 6354.6958 268.76419
12580.798 6136.0649 268.76419
12685.971 5915.5654 268.76419
12787.279 5693.2637 268.76419
12884.693 5469.2275 268.76419
12978.182 5243.5259 268.76419
13067.718 5016.2266 268.76419
13153.272 4787.3994 268.76419
13234.82 4557.1143 268.76419
13312.338 4325.4404 268.76419
13385.799 4092.4495 268.76419
13455.184 3858.2119 268.76419
1307.0952 14940.167 287.96164
1567.6379 14915.079 287.96164
1827.7032 14885.448 287.96164
2087.2119 14851.283 287.96164
2346.0845 14812.595 287.96164
2604.2427 14769.394 287.96164
2861.6074 14721.694 287.96164
3118.1006 14669.51 287.96164
3628.1597 14551.754 287.96164
3881.5703 14486.217 287.96164
4133.7983 14416.269 287.96164
4384.7676 14341.928 287.96164
4634.4009 14263.219 287.96164
4882.6226 14180.165 287.96164
5129.3569 14092.792 287.96164
5374.5288 14001.126 287.96164
5618.0635 13905.194 287.96164
5859.8867 13805.028 287.96164
6099.9253 13700.656 287.96164
11977.325 9025.5615 287.96164
12133.019 8815.1543 287.96164
12285.017 8602.0605 287.96164
12433.271 8386.3477 287.96164
12577.74 8168.0801 287.96164
12718.377 7947.3242 287.96164
12855.14 7724.1475 287.96164
12987.987 7498.6177 287.96164
13116.878 7270.8042 287.96164
13241.773 7040.7759 287.96164
13479.426 6574.3555 287.96164
13592.111 6338.1055 287.96164
13700.656 6099.9253 287.96164
13905.194 5618.0635 287.96164
14001.126 5374.5288 287.96164
14092.792 5129.3569 287.96164
14180.165 4882.6226 287.96164
14263.219 4634.4009 287.96164
14341.928 4384.7676 287.96164
1115.8979 15958.083 307.15909
1394.2349 15936.178 307.15909
1672.1472 15909.418 307.15909
1949.5502 15877.812 307.15909
2226.3591 15841.369 307.15909
2502.4902 15800.102 307.15909
3052.3813 15703.141 307.15909
3325.9741 15647.478 307.15909
3598.5535 15587.048 307.15909
3870.0371 15521.87 307.15909
4140.3418 15451.965 307.15909
4943.3608 15214.1 307.15909
5208.1304 15125.509 307.15909
5471.314 15032.312 307.15909
5732.8306 14934.534 307.15909
5992.6011 14832.208 307.15909
6250.5459 14725.363 307.15909
13104.018 9175.5312 307.15909
13262.156 8945.4375 307.15909
13416.256 8712.6182 307.15909
13712.149 8239.0908 307.15909
13853.853 7998.5259 307.15909
13991.336 7755.5244 307.15909
14124.558 7510.1606 307.15909
14253.478 7262.5093 307.15909
