# .PCD v0.7 - Point Cloud Data file format
VERSION 0.7
FIELDS x y z
SIZE 4 4 4
TYPE F F F
COUNT 1 1 1
WIDTH 1573
HEIGHT 1
VIEWPOINT 0 0 0 1 0 0 0
POINTS 1573
DATA ascii
50752 -23666.047 390.95059
50331.238 -24548.186 390.95059
49895.148 -25422.848 390.95059
49443.859 -26289.768 390.95059
47489.535 -29674.756 390.95059
46424.973 -31314.039 390.95059
-40282.047 38899.922 390.95059
-37470.402 41615.098 390.95059
-36738.41 42262.707 390.95059
-35995.23 42897.445 390.95059
-35241.082 43519.113 390.95059
-33700.82 44722.5 390.95059
55753.055 -11850.678 397.93185
55537.742 -12821.897 397.93185
55305.508 -13789.212 397.93185
55056.43 -14752.326 397.93185
54790.582 -15710.946 397.93185
54508.043 -16664.781 397.93185
54208.898 -17613.539 397.93185
53893.246 -18556.932 397.93185
53561.176 -19494.674 397.93185
52848.191 -21352.055 397.93185
52467.496 -22271.131 397.93185
52070.82 -23183.424 397.93185
51658.285 -24088.654 397.93185
51230.012 -24986.547 397.93185
50786.133 -25876.828 397.93185
49852.109 -27633.475 397.93185
47803.059 -31043.668 397.93185
47253.988 -31873.219 397.93185
46690.527 -32693.061 397.93185
46112.844 -33502.941 397.93185
-41001.371 39594.562 397.93185
-40304.105 40304.105 397.93185
-36638 43663.469 397.93185
56022.332 -15011.139 404.91312
55464.324 -16957.146 404.91312
55159.934 -17922.549 404.91312
54838.742 -18882.492 404.91312
53775.352 -21726.652 404.91312
53387.98 -22661.854 404.91312
52984.344 -23590.15 404.91312
50726.707 -28118.273 404.91312
48083.008 -32432.398 404.91312
47509.66 -33266.621 404.91312
46921.844 -34090.715 404.91312
46319.73 -34904.422 404.91312
-54838.742 18882.492 404.91312
-54500.844 19836.686 404.91312
-54146.344 20784.834 404.91312
-42417.48 39554.941 404.91312
-41720.691 40289.203 404.91312
-39554.941 42417.48 404.91312
57486.434 -13271.789 411.89438
57246.055 -14273.044 411.89438
56713.059 -16262.208 411.89438
56420.605 -17249.51 411.89438
56110.969 -18231.559 411.89438
53897.867 -23996.877 411.89438
52092.637 -27698.146 411.89438
51094.254 -29499.281 411.89438
48328.793 -33840.184 411.89438
47730.84 -34678.484 411.89438
47118.348 -35506.223 411.89438
46491.5 -36323.141 411.89438
45850.496 -37129 411.89438
-56110.969 18231.559 411.89438
-55784.238 19208.053 411.89438
-55440.512 20178.697 411.89438
-55079.902 21143.193 411.89438
-43148.816 40236.922 411.89438
-42440.016 40983.844 411.89438
-41718.285 41718.285 411.89438
57954.137 -15528.765 418.87561
57062 -18540.568 418.87561
56013.461 -21501.553 418.87561
55629.676 -22475.848 418.87561
55228.945 -23443.297 418.87561
54811.391 -24403.604 418.87561
54377.141 -25356.479 418.87561
53926.328 -26301.627 418.87561
52975.566 -28167.607 418.87561
49147.926 -34413.746 418.87561
48539.836 -35266.254 418.87561
47916.961 -36108.02 418.87561
47279.492 -36938.789 418.87561
46627.621 -37758.305 418.87561
45961.547 -38566.316 418.87561
44587.602 -40146.859 418.87561
-57674.297 16537.838 418.87561
-57376.887 17541.875 418.87561
-57062 18540.568 418.87561
-56729.73 19533.613 418.87561
-56380.184 20520.709 418.87561
-56013.461 21501.553 418.87561
-55629.676 22475.848 418.87561
-55228.945 23443.297 418.87561
-53459.09 27238.766 418.87561
-52975.566 28167.607 418.87561
-52475.902 29087.869 418.87561
-43880.152 40918.906 418.87561
58013.035 -18849.578 425.85687
56149.426 -23834.018 425.85687
55724.914 -24810.33 425.85687
53858.492 -28637.068 425.85687
53350.504 -29572.666 425.85687
52285.93 -31416.557 425.85687
48715.578 -36709.82 425.85687
48067.484 -37554.434 425.85687
47404.75 -38387.609 425.85687
46727.574 -39209.09 425.85687
-59186.598 14756.876 425.85687
-58920.039 15787.577 425.85687
-58635.535 16813.469 425.85687
-58333.168 17834.24 425.85687
-58013.035 18849.578 425.85687
-57675.227 19859.174 425.85687
-57319.852 20862.721 425.85687
-56947.02 21859.912 425.85687
-56556.836 22850.445 425.85687
-56149.426 23834.018 425.85687
-54825.102 26739.988 425.85687
-54350.074 27692.746 425.85687
-53858.492 28637.068 425.85687
-53350.504 29572.666 425.85687
57484 -23225.043 432.83813
57069.91 -24224.74 432.83813
55723.871 -27178.35 432.83813
53143.078 -31931.582 432.83813
47493.598 -39851.859 432.83813
43839.551 -43839.551 432.83813
-60643.672 12890.211 432.83813
-60409.473 13946.626 432.83813
-60156.867 14998.792 432.83813
-59885.941 16046.39 432.83813
-59596.773 17089.1 432.83813
-59289.449 18126.604 432.83813
-58964.066 19158.586 432.83813
-58620.723 20184.734 432.83813
-58259.523 21204.732 432.83813
-57880.574 22218.271 432.83813
-57484 23225.043 432.83813
-57069.91 24224.74 432.83813
-56189.715 26201.693 432.83813
-55723.871 27178.35 432.83813
-55241.059 28146.725 432.83813
-54741.418 29106.527 432.83813
-54225.102 30057.465 432.83813
-53692.266 30999.244 432.83813
-53143.078 31931.582 432.83813
58814.133 -22576.631 439.8194
54558.27 -31499.232 439.8194
54000.223 -32446.607 439.8194
53425.727 -33384.102 439.8194
51605.32 -36134.434 439.8194
50966.828 -37029.57 439.8194
49643.469 -38785.727 439.8194
48959.004 -39646.219 439.8194
48259.625 -40494.633 439.8194
-61841.004 12020.674 439.8194
-61621.797 13098.117 439.8194
-61383.816 14171.571 439.8194
-61127.141 15240.708 439.8194
-60851.844 16305.202 439.8194
-60558.012 17364.73 439.8194
-60245.73 18418.969 439.8194
-59915.102 19467.596 439.8194
-59566.219 20510.293 439.8194
-59199.191 21546.744 439.8194
-58814.133 22576.631 439.8194
-58411.16 23599.641 439.8194
-57990.391 24615.461 439.8194
-57551.961 25623.783 439.8194
-57096 26624.301 439.8194
-56622.645 27616.709 439.8194
-56132.043 28600.705 439.8194
-55624.344 29575.988 439.8194
-55099.699 30542.262 439.8194
-54558.27 31499.232 439.8194
-54000.223 32446.607 439.8194
57521.418 -28055.07 446.80066
57023.027 -29054.684 446.80066
55424.273 -31999.221 446.80066
54857.371 -32961.633 446.80066
53673.609 -34856.047 446.80066
50431.461 -39401.375 446.80066
49025.648 -41137.406 446.80066
-63210.512 10011.562 446.80066
-63026.16 11113.213 446.80066
-62822.609 12211.479 446.80066
-62599.922 13306.024 446.80066
-62358.164 14396.517 446.80066
-62097.414 15482.624 446.80066
-61817.746 16564.016 446.80066
-61519.25 17640.361 446.80066
-61202.012 18711.334 446.80066
-60866.133 19776.605 446.80066
-60511.715 20835.854 446.80066
-60138.863 21888.756 446.80066
-59747.691 22934.99 446.80066
-59338.32 23974.238 446.80066
-58910.875 25006.184 446.80066
-58465.484 26030.512 446.80066
-58002.285 27046.91 446.80066
-57521.418 28055.07 446.80066
-57023.027 29054.684 446.80066
-56507.27 30045.447 446.80066
-55974.297 31027.059 446.80066
-55424.273 31999.221 446.80066
-54857.371 32961.633 446.80066
-54273.754 33914.008 446.80066
-64513.926 7921.3145 453.78192
-64365.855 9046.0312 453.78192
-64198.176 10167.992 453.78192
-64010.945 11286.856 453.78192
-63804.211 12402.282 453.78192
-63578.043 13513.931 453.78192
-63332.512 14621.462 453.78192
-63067.684 15724.54 453.78192
-62783.648 16822.828 453.78192
-62480.488 17915.992 453.78192
-62158.293 19003.697 453.78192
-61817.168 20085.615 453.78192
-61457.211 21161.414 453.78192
-61078.531 22230.768 453.78192
-60681.25 23293.35 453.78192
-60265.48 24348.836 453.78192
-59831.355 25396.904 453.78192
-59379.008 26437.238 453.78192
-58908.57 27469.518 453.78192
-58420.188 28493.43 453.78192
-57914.012 29508.664 453.78192
-57390.195 30514.908 453.78192
-56848.895 31511.857 453.78192
-56290.281 32499.207 453.78192
-55714.516 33476.66 453.78192
-55121.781 34443.914 453.78192
58273.121 -30984.367 460.76318
42422.949 -50557.699 460.76318
-65636.844 6898.7104 460.76318
-65506.449 8043.1807 460.76318
-65356.102 9185.2012 460.76318
-65185.844 10324.423 460.76318
-64995.727 11460.5 460.76318
-64785.816 12593.087 460.76318
-64556.168 13721.837 460.76318
-64306.855 14846.408 460.76318
-64037.957 15966.456 460.76318
-63749.551 17081.641 460.76318
-63441.727 18191.623 460.76318
-63114.574 19296.062 460.76318
-62768.199 20394.625 460.76318
-62402.707 21486.975 460.76318
-62018.203 22572.779 460.76318
-61614.805 23651.709 460.76318
-61192.645 24723.434 460.76318
-60751.84 25787.627 460.76318
-60292.531 26843.965 460.76318
-59814.855 27892.125 460.76318
-59318.961 28931.791 460.76318
-58804.996 29962.643 460.76318
-58273.121 30984.367 460.76318
-57723.492 31996.654 460.76318
-57156.285 32999.195 460.76318
-56571.664 33991.684 460.76318
56817.836 -35503.727 467.74445
-66835.164 4673.5698 467.74445
-66743.422 5839.2925 467.74445
-66631.344 7003.2363 467.74445
-66498.969 8165.0469 467.74445
-66346.344 9324.3701 467.74445
-66173.508 10480.854 467.74445
-65980.508 11634.145 467.74445
-65767.422 12783.892 467.74445
-65534.293 13929.744 467.74445
-65281.203 15071.354 467.74445
-65008.23 16208.372 467.74445
-64715.453 17340.453 467.74445
-64402.965 18467.252 467.74445
-64070.855 19588.428 467.74445
-63719.234 20703.635 467.74445
-63348.199 21812.535 467.74445
-62957.871 22914.791 467.74445
-62548.363 24010.068 467.74445
-62119.805 25098.029 467.74445
-61672.32 26178.348 467.74445
-61206.055 27250.691 467.74445
-60721.141 28314.734 467.74445
-60217.734 29370.15 467.74445
-59695.98 30416.623 467.74445
-59156.047 31453.828 467.74445
-58598.094 32481.453 467.74445
-67905.156 3558.7583 474.72571
-67832.703 4743.3247 474.72571
-67739.586 5926.4463 474.72571
-67625.844 7107.7622 474.72571
-67491.492 8286.9131 474.72571
-67336.586 9463.54 474.72571
-67161.172 10637.284 474.72571
-66965.297 11807.788 474.72571
-66749.023 12974.695 474.72571
-66512.414 14137.65 474.72571
-66255.547 15296.299 474.72571
-65978.5 16450.287 474.72571
-65681.359 17599.266 474.72571
-65364.203 18742.883 474.72571
-65027.141 19880.791 474.72571
-64670.266 21012.643 474.72571
-64293.695 22138.096 474.72571
-63897.543 23256.803 474.72571
-63481.922 24368.426 474.72571
-63046.965 25472.627 474.72571
-62592.805 26569.068 474.72571
-62119.578 27657.418 474.72571
-61627.426 28737.342 474.72571
-61116.504 29808.512 474.72571
-60586.969 30870.602 474.72571
-68987.812 1204.1866 481.70697
-68956.289 2408.0066 481.70697
-68903.758 3611.093 481.70697
-68830.242 4813.0796 481.70697
-68735.758 6013.5996 481.70697
-68620.336 7212.2881 481.70697
-68484.016 8408.7793 481.70697
-68326.828 9602.71 481.70697
-68148.836 10793.715 481.70697
-67950.078 11981.433 481.70697
-67730.625 13165.5 481.70697
-67490.539 14345.557 481.70697
-67229.898 15521.244 481.70697
-66948.773 16692.203 481.70697
-66647.258 17858.078 481.70697
-66325.438 19018.514 481.70697
-65983.422 20173.156 481.70697
-65621.297 21321.652 481.70697
-65239.191 22463.654 481.70697
-64837.211 23598.814 481.70697
-64415.48 24726.785 481.70697
-63974.125 25847.225 481.70697
-63513.285 26959.791 481.70697
-63033.102 28064.145 481.70697
-62533.715 29159.949 481.70697
-62015.277 30246.871 481.70697
-69998.297 -1.2858478e-11 488.68823
-69987.633 1221.6387 488.68823
-69955.656 2442.9053 488.68823
-69902.367 3663.4277 488.68823
-69827.781 4882.834 488.68823
-69731.93 6100.7534 488.68823
-69614.836 7316.814 488.68823
-69476.539 8530.6465 488.68823
-69317.078 9741.8799 488.68823
-69136.5 10950.146 488.68823
-68934.859 12155.076 488.68823
-68712.227 13356.304 488.68823
-68468.664 14553.464 488.68823
-68204.242 15746.19 488.68823
-67919.047 16934.119 488.68823
-67613.156 18116.893 488.68823
-67286.68 19294.145 488.68823
-66939.703 20465.521 488.68823
-66572.336 21630.662 488.68823
-66184.688 22789.215 488.68823
-65776.883 23940.826 488.68823
-65349.039 25085.145 488.68823
-64901.289 26221.822 488.68823
-64433.77 27350.512 488.68823
-63946.625 28470.871 488.68823
-70987.453 -1239.0907 495.66949
-70998.273 -1.3042171e-11 495.66949
-70987.453 1239.0907 495.66949
-70955.023 2477.804 495.66949
-70900.969 3715.7625 495.66949
-70825.32 4952.5889 495.66949
-70728.102 6187.9067 495.66949
-70609.336 7421.3398 495.66949
-70469.062 8652.5127 495.66949
-70307.32 9881.0498 495.66949
-70124.164 11106.576 495.66949
-69919.648 12328.72 495.66949
-69693.828 13547.108 495.66949
-69446.789 14761.37 495.66949
-69178.586 15971.136 495.66949
-68579.062 18375.705 495.66949
-68247.914 19569.775 495.66949
-67895.984 20757.885 495.66949
-67523.367 21939.672 495.66949
-67130.18 23114.775 495.66949
-66716.547 24282.838 495.66949
-66282.594 25443.504 495.66949
-65828.453 26596.42 495.66949
-71954.383 -2512.7026 502.65076
-71987.281 -1256.5426 502.65076
-71998.242 -1.3225863e-11 502.65076
-71987.281 1256.5426 502.65076
-71954.383 2512.7026 502.65076
-71899.578 3768.0969 502.65076
-71822.859 5022.3438 502.65076
-71724.273 6275.0605 502.65076
-71461.578 8774.3789 502.65076
-71297.562 10020.219 502.65076
-71111.828 11263.007 502.65076
-67656.219 24624.85 502.65076
-67216.156 25801.863 502.65076
-72987.102 -1273.9946 509.63202
-72998.219 -1.3409556e-11 509.63202
-72987.102 1273.9946 509.63202
-72953.75 2547.6011 509.63202
-72898.18 3820.4316 509.63202
-72820.398 5092.0986 509.63202
-72720.438 6362.2144 509.63202
-72454.102 8896.2451 509.63202
-72287.805 10159.389 509.63202
-72099.492 11419.438 509.63202
-73998.195 -1.3593248e-11 516.61328
-73986.93 1291.4467 516.61328
-73953.117 2582.4998 516.61328
-73278.055 10298.559 516.61328
-73087.156 11575.868 516.61328
-72874 12849.652 516.61328
-71476.766 19152.143 516.61328
-71131.633 20396.668 516.61328
-74439.148 9139.9775 523.59454
-74268.297 10437.729 523.59454
-74074.82 11732.299 523.59454
-73858.781 13023.296 523.59454
-73075.977 16870.918 523.59454
-72770.406 18143.699 523.59454
-72442.672 19410.955 523.59454
-72092.867 20672.299 523.59454
-75431.672 9261.8447 530.57581
-75258.539 10576.897 530.57581
-75062.484 11888.729 530.57581
-74843.562 13196.939 530.57581
-74601.852 14501.13 530.57581
-74050.32 17095.863 530.57581
-73740.68 18385.615 530.57581
-73408.57 19669.768 530.57581
-76424.188 9383.7109 537.55707
-76248.781 10716.067 537.55707
-76050.148 12045.16 537.55707
-75828.352 13370.584 537.55707
-75583.453 14691.935 537.55707
-75315.531 16008.811 537.55707
-75024.664 17320.809 537.55707
-74710.953 18627.531 537.55707
-77416.711 9505.5771 544.53833
-77239.023 10855.237 544.53833
-77037.812 12201.591 544.53833
-76813.133 13544.228 544.53833
-76565.055 14882.739 544.53833
-76293.656 16216.717 544.53833
-78409.234 9627.4434 551.51959
-78229.273 10994.407 551.51959
-78025.477 12358.021 551.51959
-77797.914 13717.872 551.51959
-77546.656 15073.543 551.51959
-79401.758 9749.3096 558.50085
-79219.516 11133.577 558.50085
-79013.141 12514.452 558.50085
-78782.703 13891.516 558.50085
-80209.758 11272.746 565.48212
27501.842 -84641.969 621.33215
3315.3713 -94939.812 663.21973
1657.9382 -94983.219 663.21973
3350.27 -95939.18 670.20099
1675.3901 -95983.039 670.20099
3385.1687 -96938.547 677.18225
1692.8422 -96982.859 677.18225
1.1878784e-11 -96997.633 677.18225
1710.2942 -97982.688 684.16351
1.2001246e-11 -97997.609 684.16351
-9063.9766 -103601.73 726.05109
-10870.695 -103427.76 726.05109
-74809.516 -72242.711 726.05109
-13770.9 -112154.98 788.88245
-15726.177 -111897.56 788.88245
-19621.766 -111280.56 788.88245
-19795.41 -112265.35 795.86371
-19969.055 -113250.13 802.84497
-20142.697 -114234.91 809.82623
-64864.797 -96166.016 809.82623
-66533.242 -95019.32 809.82623
-68181.43 -93843.688 809.82623
-20316.342 -115219.7 816.8075
-14380.232 -117117.59 823.78876
-16422.025 -116848.78 823.78876
-20489.986 -116204.48 823.78876
-61029.816 -114780.39 907.56384
-53281.203 -119671.54 914.5451
-61499.277 -115663.31 914.5451
-63508.512 -114572.39 914.5451
-61968.734 -116546.24 921.52637
-63993.309 -115446.98 921.52637
0 21997.855 307.16797
383.91553 21994.506 307.16797
767.71411 21984.455 307.16797
1151.2788 21967.709 307.16797
1534.4928 21944.27 307.16797
1917.2394 21914.146 307.16797
2299.4021 21877.35 307.16797
2680.8643 21833.887 307.16797
3061.5098 21783.773 307.16797
3441.2227 21727.025 307.16797
3819.8875 21663.658 307.16797
4197.3887 21593.693 307.16797
4573.6113 21517.15 307.16797
4948.4409 21434.053 307.16797
5321.7627 21344.426 307.16797
5693.4639 21248.297 307.16797
6063.4307 21145.695 307.16797
6431.5503 21036.654 307.16797
6797.7114 20921.203 307.16797
7161.8013 20799.381 307.16797
7523.7095 20671.223 307.16797
7883.3262 20536.768 307.16797
8240.542 20396.057 307.16797
8595.2471 20249.133 307.16797
8947.334 20096.041 307.16797
9296.6953 19936.828 307.16797
9643.2256 19771.541 307.16797
9986.8174 19600.232 307.16797
10327.367 19422.953 307.16797
10664.772 19239.758 307.16797
10998.928 19050.701 307.16797
11329.733 18855.842 307.16797
11657.088 18655.24 307.16797
11980.891 18448.953 307.16797
12301.045 18237.049 307.16797
12617.451 18019.588 307.16797
12930.015 17796.639 307.16797
13238.64 17568.27 307.16797
13843.699 17095.545 307.16797
14139.949 16851.336 307.16797
15002.501 16088.213 307.16797
15280.994 15823.933 307.16797
15554.833 15554.833 307.16797
15823.933 15280.994 307.16797
16088.213 15002.501 307.16797
16347.593 14719.438 307.16797
16601.992 14431.892 307.16797
16851.336 14139.949 307.16797
17095.545 13843.699 307.16797
17334.547 13543.232 307.16797
17568.27 13238.64 307.16797
17796.639 12930.015 307.16797
18019.588 12617.451 307.16797
18237.049 12301.045 307.16797
18448.953 11980.891 307.16797
18855.842 11329.733 307.16797
19050.701 10998.928 307.16797
-1151.2788 21967.709 307.16797
-767.71411 21984.455 307.16797
-383.91553 21994.506 307.16797
0 22997.758 321.13016
802.61017 22983.748 321.13016
1203.6096 22966.24 321.13016
1604.2426 22941.736 321.13016
2004.3867 22910.244 321.13016
2403.9204 22871.773 321.13016
2802.7217 22826.336 321.13016
3200.6692 22773.945 321.13016
3597.6421 22714.617 321.13016
4388.1792 22575.225 321.13016
4781.5029 22495.201 321.13016
5173.3701 22408.326 321.13016
5563.6611 22314.627 321.13016
5952.2578 22214.129 321.13016
6339.041 22106.863 321.13016
6723.8936 21992.865 321.13016
7106.6982 21872.168 321.13016
7487.3374 21744.807 321.13016
7865.6963 21610.824 321.13016
8241.6592 21470.256 321.13016
8615.1113 21323.15 321.13016
8985.9404 21169.549 321.13016
9354.0312 21009.498 321.13016
9719.2725 20843.047 321.13016
10440.764 20491.152 321.13016
10796.793 20305.814 321.13016
11149.534 20114.293 321.13016
11844.721 19712.926 321.13016
12186.955 19503.205 321.13016
13840.396 18366.826 321.13016
14158.834 18122.48 321.13016
14782.674 17617.305 321.13016
15684.434 16819.496 321.13016
15975.585 16543.203 321.13016
16261.871 16261.871 321.13016
16543.203 15975.585 321.13016
16819.496 15684.434 321.13016
17090.664 15388.504 321.13016
17356.629 15087.887 321.13016
17617.305 14782.674 321.13016
17872.615 14472.958 321.13016
18122.48 14158.834 321.13016
18366.826 13840.396 321.13016
18605.576 13517.743 321.13016
18838.66 13190.972 321.13016
19066.006 12860.183 321.13016
19287.543 12525.477 321.13016
19503.205 12186.955 321.13016
19712.926 11844.721 321.13016
19916.643 11498.879 321.13016
20114.293 11149.534 321.13016
20305.814 10796.793 321.13016
20491.152 10440.764 321.13016
20670.248 10081.554 321.13016
20843.047 9719.2725 321.13016
21009.498 9354.0312 321.13016
21169.549 8985.9404 321.13016
21323.15 8615.1113 321.13016
21470.256 8241.6592 321.13016
21610.824 7865.6963 321.13016
21992.865 6723.8936 321.13016
22314.627 5563.6611 321.13016
22408.326 5173.3701 321.13016
22495.201 4781.5029 321.13016
22575.225 4388.1792 321.13016
-8241.6592 21470.256 321.13016
-7865.6963 21610.824 321.13016
-7487.3374 21744.807 321.13016
-7106.6982 21872.168 321.13016
-6339.041 22106.863 321.13016
-5952.2578 22214.129 321.13016
-5563.6611 22314.627 321.13016
-5173.3701 22408.326 321.13016
-4781.5029 22495.201 321.13016
-4388.1792 22575.225 321.13016
-3993.5188 22648.371 321.13016
-3597.6421 22714.617 321.13016
-2802.7217 22826.336 321.13016
-2403.9204 22871.773 321.13016
-2004.3867 22910.244 321.13016
-1604.2426 22941.736 321.13016
-1203.6096 22966.24 321.13016
-401.36621 22994.256 321.13016
0 23997.66 335.09235
418.81693 23994.006 335.09235
837.50629 23983.041 335.09235
1255.9406 23964.773 335.09235
2508.4385 23866.199 335.09235
2924.5791 23818.785 335.09235
3339.8289 23764.117 335.09235
4167.1499 23633.082 335.09235
4578.9697 23556.756 335.09235
4989.394 23473.254 335.09235
5398.2988 23382.602 335.09235
5805.5596 23284.828 335.09235
6211.0518 23179.961 335.09235
6614.6519 23068.031 335.09235
7016.2368 22949.076 335.09235
7415.6851 22823.131 335.09235
7812.874 22690.234 335.09235
8207.6836 22550.424 335.09235
8599.9922 22403.746 335.09235
8989.6816 22250.244 335.09235
9376.6328 22089.963 335.09235
10141.85 21749.268 335.09235
10519.882 21568.955 335.09235
10894.71 21382.072 335.09235
11266.219 21188.676 335.09235
11634.297 20988.826 335.09235
11998.83 20782.584 335.09235
12359.709 20570.01 335.09235
12716.822 20351.17 335.09235
13070.062 20126.131 335.09235
13419.321 19894.963 335.09235
13764.492 19657.732 335.09235
14105.471 19414.516 335.09235
14442.152 19165.385 335.09235
14774.436 18910.414 335.09235
15102.217 18649.686 335.09235
15425.398 18383.275 335.09235
15743.882 18111.264 335.09235
16057.569 17833.736 335.09235
16968.908 16968.908 335.09235
17833.736 16057.569 335.09235
18111.264 15743.882 335.09235
18383.275 15425.398 335.09235
18649.686 15102.217 335.09235
18910.414 14774.436 335.09235
19165.385 14442.152 335.09235
19414.516 14105.471 335.09235
19894.963 13419.321 335.09235
20126.131 13070.062 335.09235
20351.17 12716.822 335.09235
20570.01 12359.709 335.09235
20782.584 11998.83 335.09235
20988.826 11634.297 335.09235
21188.676 11266.219 335.09235
21382.072 10894.71 335.09235
21568.955 10519.882 335.09235
21749.268 10141.85 335.09235
21922.953 9760.7275 335.09235
22089.963 9376.6328 335.09235
22403.746 8599.9922 335.09235
22550.424 8207.6836 335.09235
22690.234 7812.874 335.09235
22823.131 7415.6851 335.09235
22949.076 7016.2368 335.09235
23068.031 6614.6519 335.09235
23284.828 5805.5596 335.09235
23382.602 5398.2988 335.09235
23473.254 4989.394 335.09235
23556.756 4578.9697 335.09235
23633.082 4167.1499 335.09235
23702.209 3754.0613 335.09235
23764.117 3339.8289 335.09235
23818.785 2924.5791 335.09235
23939.203 1673.9922 335.09235
23964.773 1255.9406 335.09235
23983.041 837.50629 335.09235
23994.006 418.81693 335.09235
23997.66 1.4694329e-12 335.09235
23994.006 -418.81693 335.09235
23983.041 -837.50629 335.09235
-13764.492 19657.732 335.09235
-13419.321 19894.963 335.09235
-13070.062 20126.131 335.09235
-12716.822 20351.17 335.09235
-12359.709 20570.01 335.09235
-11998.83 20782.584 335.09235
-8207.6836 22550.424 335.09235
-7812.874 22690.234 335.09235
-7415.6851 22823.131 335.09235
-7016.2368 22949.076 335.09235
-6614.6519 23068.031 335.09235
-6211.0518 23179.961 335.09235
-4989.394 23473.254 335.09235
-4578.9697 23556.756 335.09235
-3754.0613 23702.209 335.09235
-3339.8289 23764.117 335.09235
-2924.5791 23818.785 335.09235
-2508.4385 23866.199 335.09235
-1673.9922 23939.203 335.09235
436.26764 24993.756 349.0545
872.40234 24982.336 349.0545
1308.2714 24963.305 349.0545
1743.7418 24936.67 349.0545
3046.4365 24811.234 349.0545
3910.4805 24689.801 349.0545
4340.7812 24617.795 349.0545
4769.7598 24538.287 349.0545
5197.2856 24451.307 349.0545
6047.458 24255.029 349.0545
6469.8452 24145.791 349.0545
7724.6719 23774.096 349.0545
8138.4106 23635.66 349.0545
8549.6699 23490.025 349.0545
9364.252 23177.336 349.0545
9767.3262 23010.379 349.0545
10167.425 22836.41 349.0545
10564.427 22655.486 349.0545
10958.21 22467.66 349.0545
11348.656 22272.992 349.0545
11735.645 22071.539 349.0545
12119.059 21863.361 349.0545
12498.781 21648.525 349.0545
12874.696 21427.094 349.0545
13246.69 21199.137 349.0545
13614.648 20964.721 349.0545
13978.46 20723.92 349.0545
14338.013 20476.805 349.0545
14693.199 20223.453 349.0545
15043.909 19963.941 349.0545
15390.036 19698.348 349.0545
15731.477 19426.756 349.0545
16068.124 19149.244 349.0545
16399.877 18865.9 349.0545
16726.635 18576.811 349.0545
17048.297 18282.061 349.0545
17364.766 17981.742 349.0545
17675.947 17675.947 349.0545
18282.061 17048.297 349.0545
18576.811 16726.635 349.0545
18865.9 16399.877 349.0545
19149.244 16068.124 349.0545
19426.756 15731.477 349.0545
20964.721 13614.648 349.0545
21199.137 13246.69 349.0545
21427.094 12874.696 349.0545
21648.525 12498.781 349.0545
21863.361 12119.059 349.0545
22071.539 11735.645 349.0545
22272.992 11348.656 349.0545
22467.66 10958.21 349.0545
22655.486 10564.427 349.0545
22836.41 10167.425 349.0545
23010.379 9767.3262 349.0545
23177.336 9364.252 349.0545
23337.236 8958.3252 349.0545
23490.025 8549.6699 349.0545
23635.66 8138.4106 349.0545
23774.096 7724.6719 349.0545
23905.289 7308.5801 349.0545
24029.199 6890.2622 349.0545
24255.029 6047.458 349.0545
24356.877 5623.228 349.0545
24451.307 5197.2856 349.0545
24538.287 4769.7598 349.0545
24617.795 4340.7812 349.0545
24689.801 3910.4805 349.0545
24754.289 3478.9883 349.0545
24811.234 3046.4365 349.0545
24860.623 2612.9568 349.0545
24902.439 2178.6812 349.0545
24936.67 1743.7418 349.0545
24963.305 1308.2714 349.0545
24982.336 872.40234 349.0545
24993.756 436.26764 349.0545
24997.562 1.5306593e-12 349.0545
24993.756 -436.26764 349.0545
24982.336 -872.40234 349.0545
24963.305 -1308.2714 349.0545
24936.67 -1743.7418 349.0545
24902.439 -2178.6812 349.0545
24860.623 -2612.9568 349.0545
24811.234 -3046.4365 349.0545
24754.289 -3478.9883 349.0545
24689.801 -3910.4805 349.0545
24617.795 -4340.7812 349.0545
24538.287 -4769.7598 349.0545
24451.307 -5197.2856 349.0545
24356.877 -5623.228 349.0545
-17981.742 17364.766 349.0545
-17675.947 17675.947 349.0545
-17364.766 17981.742 349.0545
-17048.297 18282.061 349.0545
-16399.877 18865.9 349.0545
-16068.124 19149.244 349.0545
-15731.477 19426.756 349.0545
-15390.036 19698.348 349.0545
-15043.909 19963.941 349.0545
-14338.013 20476.805 349.0545
-13614.648 20964.721 349.0545
-13246.69 21199.137 349.0545
-12874.696 21427.094 349.0545
-12498.781 21648.525 349.0545
-10958.21 22467.66 349.0545
-10564.427 22655.486 349.0545
-10167.425 22836.41 349.0545
-9364.252 23177.336 349.0545
-8958.3252 23337.236 349.0545
-6890.2622 24029.199 349.0545
-6469.8452 24145.791 349.0545
-6047.458 24255.029 349.0545
-5623.228 24356.877 349.0545
-5197.2856 24451.307 349.0545
-4340.7812 24617.795 349.0545
-3046.4365 24811.234 349.0545
-2612.9568 24860.623 349.0545
-2178.6812 24902.439 349.0545
-1308.2714 24963.305 349.0545
-872.40234 24982.336 349.0545
-436.26764 24993.756 349.0545
453.71832 25993.506 363.01669
1360.6022 25961.838 363.01669
1813.4916 25934.137 363.01669
2265.8284 25898.537 363.01669
2717.4751 25855.049 363.01669
3168.2939 25803.684 363.01669
3618.1479 25744.461 363.01669
4514.4126 25602.506 363.01669
4960.5503 25519.818 363.01669
5405.1772 25429.359 363.01669
5848.1572 25331.152 363.01669
6289.356 25225.23 363.01669
6728.6392 25111.623 363.01669
7600.9233 24861.5 363.01669
8033.6587 24725.059 363.01669
8463.9473 24581.086 363.01669
9316.6582 24270.725 363.01669
9738.8223 24104.43 363.01669
10158.02 23930.793 363.01669
10574.122 23749.867 363.01669
10987.004 23561.705 363.01669
11396.539 23366.367 363.01669
11802.603 23163.912 363.01669
12205.071 22954.4 363.01669
12998.732 22514.465 363.01669
13776.558 22047.102 363.01669
14159.234 21803.309 363.01669
14537.599 21552.875 363.01669
14911.533 21295.877 363.01669
15280.927 21032.391 363.01669
15645.665 20762.5 363.01669
16005.638 20486.283 363.01669
16360.735 20203.826 363.01669
16710.85 19915.215 363.01669
17395.699 19319.883 363.01669
17730.229 19013.342 363.01669
18059.357 18701.012 363.01669
18382.984 18382.984 363.01669
18701.012 18059.357 363.01669
19319.883 17395.699 363.01669
19620.537 17055.871 363.01669
19915.215 16710.85 363.01669
20203.826 16360.735 363.01669
20486.283 16005.638 363.01669
20762.5 15645.665 363.01669
21032.391 15280.927 363.01669
21295.877 14911.533 363.01669
21552.875 14537.599 363.01669
21803.309 14159.234 363.01669
22047.102 13776.558 363.01669
22514.465 12998.732 363.01669
22737.896 12603.821 363.01669
22954.4 12205.071 363.01669
23366.367 11396.539 363.01669
23561.705 10987.004 363.01669
23749.867 10574.122 363.01669
23930.793 10158.02 363.01669
24104.43 9738.8223 363.01669
24429.627 8891.6572 363.01669
24581.086 8463.9473 363.01669
24725.059 8033.6587 363.01669
24861.5 7600.9233 363.01669
24990.367 7165.8726 363.01669
25111.623 6728.6392 363.01669
25225.23 6289.356 363.01669
25331.152 5848.1572 363.01669
25429.359 5405.1772 363.01669
25519.818 4960.5503 363.01669
25602.506 4514.4126 363.01669
25677.395 4066.8997 363.01669
25744.461 3618.1479 363.01669
25803.684 3168.2939 363.01669
25855.049 2717.4751 363.01669
25898.537 2265.8284 363.01669
25934.137 1813.4916 363.01669
25961.838 1360.6022 363.01669
25981.629 907.29846 363.01669
25993.506 453.71832 363.01669
25993.506 -453.71832 363.01669
25981.629 -907.29846 363.01669
25961.838 -1360.6022 363.01669
25934.137 -1813.4916 363.01669
25898.537 -2265.8284 363.01669
25855.049 -2717.4751 363.01669
25803.684 -3168.2939 363.01669
25744.461 -3618.1479 363.01669
25677.395 -4066.8997 363.01669
25602.506 -4514.4126 363.01669
25519.818 -4960.5503 363.01669
25429.359 -5405.1772 363.01669
25331.152 -5848.1572 363.01669
25225.23 -6289.356 363.01669
25111.623 -6728.6392 363.01669
24990.367 -7165.8726 363.01669
24581.086 -8463.9473 363.01669
24429.627 -8891.6572 363.01669
24270.725 -9316.6582 363.01669
24104.43 -9738.8223 363.01669
23930.793 -10158.02 363.01669
-21552.875 14537.599 363.01669
-21295.877 14911.533 363.01669
-21032.391 15280.927 363.01669
-20762.5 15645.665 363.01669
-20486.283 16005.638 363.01669
-19620.537 17055.871 363.01669
-19319.883 17395.699 363.01669
-19013.342 17730.229 363.01669
-18701.012 18059.357 363.01669
-18059.357 18701.012 363.01669
-17730.229 19013.342 363.01669
-17395.699 19319.883 363.01669
-17055.871 19620.537 363.01669
-16710.85 19915.215 363.01669
-16360.735 20203.826 363.01669
-14537.599 21552.875 363.01669
-14159.234 21803.309 363.01669
-12205.071 22954.4 363.01669
-10158.02 23930.793 363.01669
-9738.8223 24104.43 363.01669
-7600.9233 24861.5 363.01669
-7165.8726 24990.367 363.01669
-6289.356 25225.23 363.01669
-5848.1572 25331.152 363.01669
-4960.5503 25519.818 363.01669
-4066.8997 25677.395 363.01669
-3618.1479 25744.461 363.01669
-1813.4916 25934.137 363.01669
-453.71832 25993.506 363.01669
0 26997.367 376.97888
471.16904 26993.256 376.97888
942.19458 26980.922 376.97888
1412.9331 26960.369 376.97888
1883.2412 26931.604 376.97888
2352.9756 26894.635 376.97888
2821.9934 26849.475 376.97888
3290.1516 26796.135 376.97888
3757.3074 26734.631 376.97888
4223.3188 26664.986 376.97888
4688.0439 26587.217 376.97888
10113.393 25031.523 376.97888
10548.712 24851.209 376.97888
10980.819 24663.322 376.97888
11409.581 24467.926 376.97888
11834.867 24265.074 376.97888
12256.549 24054.832 376.97888
12674.497 23837.262 376.97888
13088.584 23612.43 376.97888
13498.684 23380.406 376.97888
13904.673 23141.262 376.97888
14306.426 22895.066 376.97888
14703.82 22641.898 376.97888
15096.736 22381.832 376.97888
15485.055 22114.949 376.97888
15868.655 21841.33 376.97888
16247.422 21561.057 376.97888
16621.24 21274.217 376.97888
17711.867 20375.172 376.97888
18064.766 20062.955 376.97888
18412.16 19744.625 376.97888
18753.947 19420.281 376.97888
19090.021 19090.021 376.97888
19744.625 18412.16 376.97888
20062.955 18064.766 376.97888
20375.172 17711.867 376.97888
20681.184 17353.574 376.97888
20980.896 16989.994 376.97888
21274.217 16621.24 376.97888
21561.057 16247.422 376.97888
22114.949 15485.055 376.97888
22381.832 15096.736 376.97888
22641.898 14703.82 376.97888
22895.066 14306.426 376.97888
23141.262 13904.673 376.97888
23380.406 13498.684 376.97888
23612.43 13088.584 376.97888
23837.262 12674.497 376.97888
24054.832 12256.549 376.97888
24467.926 11409.581 376.97888
24663.322 10980.819 376.97888
24851.209 10548.712 376.97888
25031.523 10113.393 376.97888
25204.215 9674.9912 376.97888
25369.229 9233.6436 376.97888
25526.514 8789.4834 376.97888
25676.023 8342.6455 376.97888
25817.711 7893.2666 376.97888
25951.535 7441.4834 376.97888
26077.455 6987.4331 376.97888
26195.432 6531.2544 376.97888
26305.428 6073.0864 376.97888
26407.41 5613.0684 376.97888
26501.35 5151.3408 376.97888
26587.217 4688.0439 376.97888
26664.986 4223.3188 376.97888
26734.631 3757.3074 376.97888
26796.135 3290.1516 376.97888
26849.475 2821.9934 376.97888
26894.635 2352.9756 376.97888
26931.604 1883.2412 376.97888
26960.369 1412.9331 376.97888
26980.922 942.19458 376.97888
26993.256 471.16904 376.97888
26997.367 1.653112e-12 376.97888
26993.256 -471.16904 376.97888
26980.922 -942.19458 376.97888
26960.369 -1412.9331 376.97888
26931.604 -1883.2412 376.97888
26894.635 -2352.9756 376.97888
26849.475 -2821.9934 376.97888
26796.135 -3290.1516 376.97888
26734.631 -3757.3074 376.97888
26664.986 -4223.3188 376.97888
26587.217 -4688.0439 376.97888
26501.35 -5151.3408 376.97888
26407.41 -5613.0684 376.97888
26305.428 -6073.0864 376.97888
26195.432 -6531.2544 376.97888
26077.455 -6987.4331 376.97888
25951.535 -7441.4834 376.97888
25817.711 -7893.2666 376.97888
25526.514 -8789.4834 376.97888
25369.229 -9233.6436 376.97888
25204.215 -9674.9912 376.97888
25031.523 -10113.393 376.97888
24851.209 -10548.712 376.97888
24663.322 -10980.819 376.97888
24467.926 -11409.581 376.97888
24265.074 -11834.867 376.97888
24054.832 -12256.549 376.97888
23837.262 -12674.497 376.97888
23612.43 -13088.584 376.97888
23380.406 -13498.684 376.97888
23141.262 -13904.673 376.97888
22895.066 -14306.426 376.97888
-24265.074 11834.867 376.97888
-24054.832 12256.549 376.97888
-23837.262 12674.497 376.97888
-23380.406 13498.684 376.97888
-23141.262 13904.673 376.97888
-22895.066 14306.426 376.97888
-22381.832 15096.736 376.97888
-22114.949 15485.055 376.97888
-21841.33 15868.655 376.97888
-21561.057 16247.422 376.97888
-21274.217 16621.24 376.97888
-20980.896 16989.994 376.97888
-20681.184 17353.574 376.97888
-20375.172 17711.867 376.97888
-20062.955 18064.766 376.97888
-19744.625 18412.16 376.97888
-18412.16 19744.625 376.97888
-18064.766 20062.955 376.97888
-17711.867 20375.172 376.97888
-16989.994 20980.896 376.97888
-12674.497 23837.262 376.97888
-12256.549 24054.832 376.97888
-11834.867 24265.074 376.97888
-8789.4834 25526.514 376.97888
-8342.6455 25676.023 376.97888
-7893.2666 25817.711 376.97888
-7441.4834 25951.535 376.97888
-6987.4331 26077.455 376.97888
-6073.0864 26305.428 376.97888
-5613.0684 26407.41 376.97888
-4223.3188 26664.986 376.97888
-3757.3074 26734.631 376.97888
-471.16904 26993.256 376.97888
25163.779 12273.195 390.94107
26137.703 10033.324 390.94107
26308.828 9575.6309 390.94107
26471.939 9115.0195 390.94107
26626.986 8651.6328 390.94107
26773.924 8185.6099 390.94107
26912.703 7717.0938 390.94107
27043.287 7246.2271 390.94107
27165.633 6773.1528 390.94107
27279.703 6298.0156 390.94107
27385.463 5820.96 390.94107
27482.883 5342.1309 390.94107
27571.93 4861.6748 390.94107
27788.584 3412.009 390.94107
27843.898 2926.5117 390.94107
27890.732 2440.1228 390.94107
27929.07 1952.9908 390.94107
27958.902 1465.2639 390.94107
27993.006 488.61975 390.94107
27997.271 1.7143384e-12 390.94107
27993.006 -488.61975 390.94107
27980.215 -977.09064 390.94107
27958.902 -1465.2639 390.94107
27890.732 -2440.1228 390.94107
27843.898 -2926.5117 390.94107
27788.584 -3412.009 390.94107
27724.803 -3896.467 390.94107
27652.578 -4379.7383 390.94107
27571.93 -4861.6748 390.94107
27482.883 -5342.1309 390.94107
27385.463 -5820.96 390.94107
27279.703 -6298.0156 390.94107
27165.633 -6773.1528 390.94107
27043.287 -7246.2271 390.94107
26912.703 -7717.0938 390.94107
26626.986 -8651.6328 390.94107
26471.939 -9115.0195 390.94107
26308.828 -9575.6309 390.94107
26137.703 -10033.324 390.94107
25958.617 -10487.962 390.94107
25771.623 -10939.405 390.94107
25576.779 -11387.516 390.94107
25374.145 -11832.158 390.94107
25163.779 -12273.195 390.94107
24945.75 -12710.495 390.94107
24720.123 -13143.923 390.94107
24486.965 -13573.346 390.94107
24246.348 -13998.636 390.94107
23998.346 -14419.66 390.94107
23743.031 -14836.293 390.94107
23480.486 -15248.406 390.94107
23210.789 -15655.875 390.94107
22934.021 -16058.575 390.94107
22650.268 -16456.383 390.94107
22062.15 -17236.842 390.94107
21757.967 -17619.254 390.94107
21447.154 -17996.299 390.94107
-26471.939 9115.0195 390.94107
-26308.828 9575.6309 390.94107
-26137.703 10033.324 390.94107
-25958.617 10487.962 390.94107
-25771.623 10939.405 390.94107
-25374.145 11832.158 390.94107
-25163.779 12273.195 390.94107
-24945.75 12710.495 390.94107
-24720.123 13143.923 390.94107
-24486.965 13573.346 390.94107
-24246.348 13998.636 390.94107
-23998.346 14419.66 390.94107
-22062.15 17236.842 390.94107
-21757.967 17619.254 390.94107
-21447.154 17996.299 390.94107
-21129.809 18367.861 390.94107
-20139.551 19448.539 390.94107
-19797.061 19797.061 390.94107
-19448.539 20139.551 390.94107
-19094.092 20475.908 390.94107
-18733.83 20806.027 390.94107
-18367.861 21129.809 390.94107
-17996.299 21447.154 390.94107
-17619.254 21757.967 390.94107
-17236.842 22062.15 390.94107
-13573.346 24486.965 390.94107
-12710.495 24945.75 390.94107
-10033.324 26137.703 390.94107
-9575.6309 26308.828 390.94107
-9115.0195 26471.939 390.94107
-8651.6328 26626.986 390.94107
-8185.6099 26773.924 390.94107
-7717.0938 26912.703 390.94107
-6773.1528 27165.633 390.94107
-3896.467 27724.803 390.94107
-2926.5117 27843.898 390.94107
28363.516 6028.8511 404.90323
28464.414 5532.9214 404.90323
28556.641 5035.3062 404.90323
28640.17 4536.1572 404.90323
28714.975 4035.6265 404.90323
28781.033 3533.8665 404.90323
28838.324 3031.03 404.90323
28886.83 2527.2703 404.90323
28926.537 2022.7406 404.90323
28957.434 1517.5947 404.90323
28979.51 1011.9868 404.90323
28992.756 506.07047 404.90323
28997.174 1.7755647e-12 404.90323
28992.756 -506.07047 404.90323
28979.51 -1011.9868 404.90323
28957.434 -1517.5947 404.90323
28926.537 -2022.7406 404.90323
28886.83 -2527.2703 404.90323
28838.324 -3031.03 404.90323
28781.033 -3533.8665 404.90323
28640.17 -4536.1572 404.90323
28556.641 -5035.3062 404.90323
28464.414 -5532.9214 404.90323
28363.516 -6028.8511 404.90323
28253.977 -6522.9448 404.90323
28135.834 -7015.0513 404.90323
28009.119 -7505.0205 404.90323
27873.871 -7992.7041 404.90323
27730.135 -8477.9531 404.90323
27577.951 -8960.6191 404.90323
27417.365 -9440.5566 404.90323
27248.43 -9917.6172 404.90323
27071.193 -10391.657 404.90323
26692.039 -11330.099 404.90323
26490.236 -11794.213 404.90323
26280.363 -12254.735 404.90323
26062.486 -12711.524 404.90323
25836.67 -13164.441 404.90323
25602.984 -13613.349 404.90323
24590.998 -15366.161 404.90323
24319.076 -15792.992 404.90323
24039.746 -16215.014 404.90323
23753.094 -16632.096 404.90323
23459.205 -17044.111 404.90323
23158.172 -17450.934 404.90323
22850.084 -17852.443 404.90323
22535.035 -18248.512 404.90323
22213.123 -18639.023 404.90323
21884.445 -19023.857 404.90323
21549.1 -19402.896 404.90323
21207.189 -19776.025 404.90323
20858.82 -20143.129 404.90323
20504.098 -20504.098 404.90323
20143.129 -20858.82 404.90323
19776.025 -21207.189 404.90323
-28640.17 4536.1572 404.90323
-28363.516 6028.8511 404.90323
-27417.365 9440.5566 404.90323
-26885.711 10862.532 404.90323
-26280.363 12254.735 404.90323
-26062.486 12711.524 404.90323
-25836.67 13164.441 404.90323
-25361.5 14058.108 404.90323
-25112.289 14498.587 404.90323
-24855.428 14934.648 404.90323
-24319.076 15792.992 404.90323
-23753.094 16632.096 404.90323
-22850.084 17852.443 404.90323
-22535.035 18248.512 404.90323
-22213.123 18639.023 404.90323
-21884.445 19023.857 404.90323
-21549.1 19402.896 404.90323
-19402.896 21549.1 404.90323
-18639.023 22213.123 404.90323
-17852.443 22850.084 404.90323
-17044.111 23459.205 404.90323
-14934.648 24855.428 404.90323
-13164.441 25836.67 404.90323
29992.508 523.52118 418.86542
29997.076 1.8367911e-12 418.86542
29992.508 -523.52118 418.86542
29978.803 -1046.8828 418.86542
29955.965 -1569.9257 418.86542
29924.004 -2092.4902 418.86542
29832.748 -3135.5483 418.86542
29773.482 -3655.7239 418.86542
29705.146 -4174.7861 418.86542
29627.762 -4692.5767 418.86542
29541.354 -5208.9375 418.86542
29445.945 -5723.7119 418.86542
29341.568 -6236.7427 418.86542
29228.252 -6747.874 418.86542
29106.035 -7256.9492 418.86542
28974.949 -7763.8145 418.86542
28835.039 -8268.3145 418.86542
28686.346 -8770.2959 418.86542
28528.914 -9269.6064 418.86542
28362.793 -9766.0928 418.86542
28188.031 -10259.604 418.86542
28004.684 -10749.99 418.86542
27812.805 -11237.103 418.86542
27612.453 -11720.791 418.86542
27403.691 -12200.91 418.86542
27186.584 -12677.312 418.86542
26961.193 -13149.853 418.86542
26727.59 -13618.388 418.86542
26485.846 -14082.774 418.86542
26236.033 -14542.871 418.86542
25438.963 -15896.028 418.86542
25157.664 -16337.578 418.86542
24868.703 -16774.152 418.86542
24268.145 -17631.838 418.86542
23956.73 -18052.691 418.86542
23638.018 -18468.043 418.86542
23312.105 -18877.771 418.86542
22979.094 -19281.748 418.86542
22639.08 -19679.852 418.86542
22292.172 -20071.961 418.86542
21938.473 -20457.957 418.86542
21578.09 -20837.721 418.86542
21211.135 -21211.135 418.86542
20837.721 -21578.09 418.86542
20457.957 -21938.473 418.86542
20071.961 -22292.172 418.86542
19281.748 -22979.094 418.86542
18877.771 -23312.105 418.86542
18468.043 -23638.018 418.86542
18052.691 -23956.73 418.86542
17631.838 -24268.145 418.86542
17205.615 -24572.166 418.86542
16774.152 -24868.703 418.86542
-29882.928 2614.4175 418.86542
-29832.748 3135.5483 418.86542
-29445.945 5723.7119 418.86542
-29341.568 6236.7427 418.86542
-28974.949 7763.8145 418.86542
-28188.031 10259.604 418.86542
-27612.453 11720.791 418.86542
-27186.584 12677.312 418.86542
-26961.193 13149.853 418.86542
-26727.59 13618.388 418.86542
-26485.846 14082.774 418.86542
-26236.033 14542.871 418.86542
-25978.23 14998.538 418.86542
-25712.512 15449.636 418.86542
-25157.664 16337.578 418.86542
-24572.166 17205.615 418.86542
-23956.73 18052.691 418.86542
-23638.018 18468.043 418.86542
-23312.105 18877.771 418.86542
-22979.094 19281.748 418.86542
-22292.172 20071.961 418.86542
-21578.09 20837.721 418.86542
-20457.957 21938.473 418.86542
-20071.961 22292.172 418.86542
-19679.852 22639.08 418.86542
-19281.748 22979.094 418.86542
-18468.043 23638.018 418.86542
-15896.028 25438.963 418.86542
30695.318 -4313.9458 432.82761
30615.354 -4848.9956 432.82761
30526.064 -5382.5688 432.82761
30427.477 -5914.5024 432.82761
30319.619 -6444.6343 432.82761
30202.527 -6972.8027 432.82761
30076.236 -7498.8477 432.82761
29940.781 -8022.6084 432.82761
29796.207 -8543.9248 432.82761
29642.559 -9062.6396 432.82761
29479.879 -9578.5928 432.82761
29308.219 -10091.629 432.82761
29127.631 -10601.591 432.82761
28938.172 -11108.323 432.82761
28739.898 -11611.673 432.82761
28532.869 -12111.484 432.82761
28317.148 -12607.606 432.82761
28092.803 -13099.889 432.82761
27859.9 -13588.181 432.82761
27618.51 -14072.334 432.82761
27368.707 -14552.2 432.82761
27110.568 -15027.633 432.82761
26569.596 -15964.624 432.82761
25996.254 -16882.164 432.82761
25697.66 -17333.291 432.82761
25391.238 -17779.137 432.82761
25077.082 -18219.566 432.82761
24755.287 -18654.447 432.82761
24425.953 -19083.645 432.82761
24089.176 -19507.031 432.82761
23745.062 -19924.473 432.82761
23393.717 -20335.848 432.82761
23035.244 -20741.027 432.82761
22669.754 -21139.889 432.82761
22297.359 -21532.311 432.82761
21918.174 -21918.174 432.82761
21532.311 -22297.359 432.82761
21139.889 -22669.754 432.82761
20741.027 -23035.244 432.82761
20335.848 -23393.717 432.82761
19924.473 -23745.062 432.82761
19507.031 -24089.176 432.82761
19083.645 -24425.953 432.82761
18654.447 -24755.287 432.82761
18219.566 -25077.082 432.82761
17779.137 -25391.238 432.82761
17333.291 -25697.66 432.82761
15498.489 -26844.17 432.82761
14072.334 -27618.51 432.82761
13588.181 -27859.9 432.82761
-30202.527 6972.8027 432.82761
-29940.781 8022.6084 432.82761
-29796.207 8543.9248 432.82761
-29127.631 10601.591 432.82761
-28938.172 11108.323 432.82761
-27859.9 13588.181 432.82761
-27110.568 15027.633 432.82761
-26844.17 15498.489 432.82761
-26569.596 15964.624 432.82761
-26286.928 16425.896 432.82761
-25996.254 16882.164 432.82761
-25697.66 17333.291 432.82761
-25391.238 17779.137 432.82761
-24755.287 18654.447 432.82761
-24425.953 19083.645 432.82761
-24089.176 19507.031 432.82761
-23745.062 19924.473 432.82761
-23393.717 20335.848 432.82761
-23035.244 20741.027 432.82761
-22669.754 21139.889 432.82761
-22297.359 21532.311 432.82761
30757.375 -8819.5352 446.78976
30598.77 -9354.9824 446.78976
30430.842 -9887.5801 446.78976
30253.645 -10417.165 446.78976
30067.232 -10943.578 446.78976
29871.662 -11466.656 446.78976
29666.992 -11986.242 446.78976
29453.283 -12502.178 446.78976
29230.605 -13014.304 446.78976
28999.021 -13522.466 446.78976
28758.605 -14026.51 446.78976
28509.43 -14526.28 446.78976
28251.568 -15021.626 446.78976
27985.102 -15512.396 446.78976
27426.68 -16479.611 446.78976
27134.895 -16955.764 446.78976
26834.842 -17426.75 446.78976
26526.617 -17892.428 446.78976
26210.311 -18352.656 446.78976
25886.02 -18807.295 446.78976
25553.846 -19256.203 446.78976
25213.887 -19699.246 446.78976
24866.246 -20136.289 446.78976
24511.033 -20567.199 446.78976
24148.352 -20991.842 446.78976
23778.316 -21410.092 446.78976
23401.037 -21821.82 446.78976
23016.629 -22226.9 446.78976
22625.211 -22625.211 446.78976
21410.092 -23778.316 446.78976
20567.199 -24511.033 446.78976
20136.289 -24866.246 446.78976
19699.246 -25213.887 446.78976
19256.203 -25553.846 446.78976
18807.295 -25886.02 446.78976
18352.656 -26210.311 446.78976
17892.428 -26526.617 446.78976
16479.611 -27426.68 446.78976
15998.44 -27710.111 446.78976
15512.396 -27985.102 446.78976
15021.626 -28251.568 446.78976
14526.28 -28509.43 446.78976
14026.51 -28758.605 446.78976
13522.466 -28999.021 446.78976
13014.304 -29230.605 446.78976
11986.242 -29666.992 446.78976
11466.656 -29871.662 446.78976
10417.165 -30253.645 446.78976
9887.5801 -30430.842 446.78976
-31176.803 -7197.7319 446.78976
-31297.672 -6652.5254 446.78976
-31758.381 -3899.439 446.78976
-31992.008 558.42255 446.78976
-31821.598 3344.5847 446.78976
-31758.381 3899.439 446.78976
-30906.613 8281.4023 446.78976
-29230.605 13014.304 446.78976
-28999.021 13522.466 446.78976
-28758.605 14026.51 446.78976
-27985.102 15512.396 446.78976
-27426.68 16479.611 446.78976
-27134.895 16955.764 446.78976
-26526.617 17892.428 446.78976
-26210.311 18352.656 446.78976
-25886.02 18807.295 446.78976
-25553.846 19256.203 446.78976
-25213.887 19699.246 446.78976
-24866.246 20136.289 446.78976
-24511.033 20567.199 446.78976
-24148.352 20991.842 446.78976
30144.061 -13421.001 460.75195
29657.312 -14464.838 460.75195
29400.35 -14980.227 460.75195
29134.43 -15491.052 460.75195
28859.637 -15997.158 460.75195
28576.053 -16498.393 460.75195
28283.764 -16994.6 460.75195
27982.859 -17485.631 460.75195
27673.432 -17971.336 460.75195
27355.572 -18451.566 460.75195
26001.82 -20314.848 460.75195
25643.316 -20765.549 460.75195
25277.002 -21209.924 460.75195
24902.988 -21647.838 460.75195
24521.389 -22079.158 460.75195
24132.32 -22503.752 460.75195
23735.9 -22921.492 460.75195
23332.25 -23332.25 460.75195
22921.492 -23735.9 460.75195
22503.752 -24132.32 460.75195
22079.158 -24521.389 460.75195
21647.838 -24902.988 460.75195
21209.924 -25277.002 460.75195
20765.549 -25643.316 460.75195
20314.848 -26001.82 460.75195
19857.959 -26352.402 460.75195
19395.023 -26694.959 460.75195
18926.178 -27029.383 460.75195
18451.566 -27355.572 460.75195
17971.336 -27673.432 460.75195
17485.631 -27982.859 460.75195
16994.6 -28283.764 460.75195
16498.393 -28576.053 460.75195
15997.158 -28859.637 460.75195
15491.052 -29134.43 460.75195
14980.227 -29400.35 460.75195
14464.838 -29657.312 460.75195
13421.001 -30144.061 460.75195
12892.87 -30373.699 460.75195
12360.812 -30594.084 460.75195
11824.989 -30805.15 460.75195
11285.564 -31006.834 460.75195
10742.702 -31199.072 460.75195
10196.566 -31381.807 460.75195
8540.1963 -31872.445 460.75195
7982.6445 -32016.639 460.75195
7422.6611 -32151.078 460.75195
6860.417 -32275.725 460.75195
5729.8311 -32495.488 460.75195
-31199.072 -10742.702 460.75195
-32151.078 -7422.6611 460.75195
-32275.725 -6860.417 460.75195
-32871.219 -2875.8591 460.75195
-32916.406 -2301.7393 460.75195
-32951.562 -1726.9182 460.75195
-32996.785 -6.0614109e-12 460.75195
-32991.758 575.87329 460.75195
